# .PCD v0.7 - Point Cloud Data file format
VERSION 0.7
FIELDS x y z intensity
SIZE 4 4 4 4
TYPE F F F F
COUNT 1 1 1 1
WIDTH 1288
HEIGHT 1
VIEWPOINT 0 0 0 1 0 0 0
POINTS 1288
DATA ascii
-3.6342371 8.8696156 2.8545489 883
-3.5291281 7.8448672 2.5405269 694
-0.87252527 3.2816911 1.3363948 1019
-0.99289668 3.2364972 1.3007233 838
-1.1319979 3.2341194 1.2761896 825
-1.2677557 3.2202086 1.2502691 1117
-0.87387067 3.2860017 1.2044071 994
-0.99302161 3.2420483 1.1689132 1013
-1.1304157 3.2350976 1.1422319 1062
-1.2651979 3.2227764 1.1153791 1158
-0.86703008 3.2688606 1.0717643 1026
-0.9895767 3.2370245 1.0387467 982
-1.1237373 3.2271392 1.0105046 1028
-1.2648681 3.2273698 0.98311925 1152
-0.8713116 3.2837508 0.9443751 1019
-0.99606055 3.2560956 0.91253906 1068
-1.1289406 3.2424338 0.88226742 1096
-1.2717345 3.2440927 0.85305434 1142
-0.86860394 3.2801626 0.8171578 1103
-0.99208951 3.2507496 0.78434324 1019
-1.1208493 3.2289627 0.75313455 1046
-1.2582558 3.2209978 0.72088355 1150
-0.87013519 3.2861087 0.69001734 1113
-0.99503362 3.2613037 0.65731043 1069
-1.1185763 3.2253191 0.62428194 1043
-1.2576963 3.2229769 0.59067243 1103
-0.86767715 3.2843075 0.56367612 1076
-0.9847436 3.2377238 0.53086817 1014
-1.1216484 3.228313 0.49292347 1044
-1.2550803 3.220705 0.46096474 1088
-0.86602443 3.2847643 0.43680838 1061
-0.99197012 3.2592425 0.403133 983
-1.1242166 3.2451804 0.36715817 1021
-1.2614523 3.2343051 0.32929417 1091
-0.86155546 3.2760112 0.31013423 994
-0.99370432 3.2671106 0.27419716 953
-1.1267083 3.2556255 0.23612204 1053
-1.2634187 3.2402313 0.19704683 1069
-0.86819446 3.3005853 0.17929256 977
-0.98907858 3.2615848 0.14483084 888
-1.1211005 3.243752 0.10664099 960
-1.2540971 3.2240634 0.066072598 550
-0.94392842 3.5208416 0.013518227 213
-1.419546 4.3536272 -0.17718169 441
-1.1199529 3.2440431 -0.025906928 390
-1.1906767 3.0921578 -0.041687597 332
-0.75137597 2.9825594 -0.018714409 350
-0.81331915 2.823431 -0.024029676 434
-0.93116707 2.8134675 -0.061946452 475
-1.093354 2.8895109 -0.12434911 316
-0.67150366 2.7624829 -0.087239042 400
-0.75199127 2.6725392 -0.10329285 581
-0.88018763 2.7012825 -0.15130016 598
-0.96754932 2.6279917 -0.17613372 410
-0.6089617 2.594636 -0.15636423 303
-0.69191557 2.5231466 -0.17415574 199
-0.75918627 2.4245598 -0.18414834 316
-0.82143301 2.3225062 -0.19447525 369
-0.82828468 3.2840834 1.6113887 982
-0.96237218 3.2685163 1.5822196 961
-2.9509027 7.5673375 2.8389618 322
-3.3578372 7.7106862 2.8348463 330
-0.83890653 3.3115821 1.4778762 1023
-0.95187098 3.245698 1.4343882 935
-3.5105696 8.8832397 2.8457808 1011
-3.6070867 8.2599888 2.6317565 657
-0.82616365 3.2782757 1.3323554 1042
-0.95558625 3.2585249 1.3020902 957
-1.0868262 3.2388263 1.2734649 1004
-1.2306751 3.2445467 1.2513191 1092
-0.82997167 3.2899234 1.2024487 971
-0.95069277 3.2512348 1.1677198 991
-1.08559 3.2406073 1.1401695 1066
-1.2205069 3.2310083 1.1135801 1108
-0.82557362 3.2791955 1.0711716 1021
-0.94622904 3.2433565 1.0374179 955
-1.0793816 3.2334168 1.0090282 979
-1.2234849 3.242738 0.98263454 1127
-0.82482171 3.2800062 0.94239348 1003
-0.95175016 3.2606068 0.91138536 1038
-1.0800815 3.2386475 0.88030827 1026
-1.2212336 3.2405756 0.85116237 1124
-0.81955564 3.2687757 0.81533104 1071
-0.94998246 3.2607727 0.78396356 1000
-1.0799712 3.243403 0.75295049 1041
-1.2199117 3.2425957 0.72095209 1134
-0.82132429 3.2756393 0.68920439 1091
-0.95028883 3.2648177 0.65700632 1031
-1.0773486 3.2388079 0.62419653 1015
-1.2129604 3.2309873 0.59061271 1107
-0.82116044 3.2804158 0.56376022 1045
-0.9438656 3.250448 0.53087598 989
-1.0768532 3.2335637 0.49322477 1029
-1.2091062 3.2259717 0.46144509 1103
-0.82209754 3.2884285 0.4372412 1083
-0.95011389 3.2701902 0.40335366 1023
-1.0792348 3.2504728 0.36791787 1021
-1.2098243 3.2279308 0.33124748 1074
-0.81838959 3.2815294 0.3108089 1026
-0.94322151 3.2557592 0.27672216 924
-1.0757898 3.2472358 0.23882452 1010
-1.2197644 3.2510693 0.1979703 1101
-0.82217824 3.2986882 0.18121728 993
-0.94508427 3.2669616 0.14616466 917
-1.0819775 3.2627721 0.10633039 955
-1.2089845 3.2312374 0.067898318 565
-0.82813054 3.3224621 0.048049599 991
-1.366354 4.3753223 -0.17739609 765
-1.3966937 4.0088892 -0.16633841 334
-1.1451348 3.0941775 -0.038490459 285
-0.73458087 3.0538368 -0.030589005 278
-0.82497829 2.9587429 -0.05029045 314
-0.87252635 2.7716019 -0.048968837 375
-1.0094182 2.8029149 -0.099078193 501
-0.63754356 2.7741961 -0.087270886 493
-0.68494153 2.5952592 -0.08020661 572
-0.82920742 2.6735663 -0.13992375 526
-0.88766569 2.5416894 -0.14683466 563
-0.57860625 2.6101682 -0.15769842 233
-0.65576601 2.521625 -0.17013423 323
-0.72637373 2.4302995 -0.18194242 373
-0.78879982 2.3274245 -0.19160877 323
-0.78944397 3.3022447 1.6127678 960
-0.91582936 3.266645 1.5769818 964
-2.888932 7.6815047 2.8610313 429
-3.2779434 7.7875185 2.8441703 403
-0.79244375 3.3078361 1.4731474 993
-0.91130829 3.2590032 1.433875 1011
-3.3838053 8.8870726 2.8349662 773
-3.678256 8.6843605 2.7245069 586
-0.78527349 3.2899997 1.331897 1042
-0.91315234 3.2672672 1.300644 975
-1.0398779 3.238379 1.2697834 955
-1.190371 3.2621994 1.2510926 1109
-0.78306746 3.2839139 1.1987455 987
-0.91245061 3.2709687 1.1685044 982
-1.0412226 3.2464185 1.1382635 1029
-1.1807762 3.2494302 1.1135364 1109
-0.78466016 3.2908864 1.0708572 1015
-0.90774429 3.2621307 1.0378942 952
-1.032058 3.2317498 1.0065966 974
-1.1774302 3.2476263 0.98093963 1151
-0.78295976 3.2888439 0.94184488 1000
-0.91098183 3.2738602 0.91116041 1017
-1.0300132 3.2304671 0.87801701 989
-1.1789033 3.2535579 0.85067523 1052
-0.7787627 3.2803774 0.81516135 1071
-0.90678596 3.2674427 0.78341478 1041
-1.0305921 3.2370033 0.75172621 1013
-1.1742465 3.2482698 0.7203812 1091
-0.78481698 3.3005509 0.68952465 1098
-0.90946323 3.2780428 0.65692639 1067
-1.0333416 3.2452967 0.62403595 1048
-1.1682632 3.2383862 0.59055376 1097
-0.78022021 3.2920303 0.56373584 1050
-0.89975369 3.2542138 0.53102714 1007
-1.0329051 3.240051 0.49347404 955
-1.1714902 3.2488019 0.46122661 1079
-0.7788794 3.2934091 0.43758923 1084
-0.90645713 3.2759173 0.40383574 1020
-1.0313079 3.2477636 0.36917204 989
-1.1713542 3.2489429 0.33098984 1060
-0.77805561 3.2950082 0.3107717 1002
-0.89975238 3.2614245 0.2775676 928
-1.0286888 3.2463782 0.24064586 988
-1.1810027 3.2721925 0.1976037 1091
-0.78348267 3.3178766 0.18048704 998
-0.90149486 3.2726829 0.14737439 926
-1.0347154 3.2620625 0.10883921 906
-1.1773936 3.2675443 0.064977527 1085
-0.78606308 3.3322973 0.048618555 1007
-1.3210506 4.4186029 -0.18147382 403
-1.3257419 3.976511 -0.15650707 202
-1.1212643 3.1430442 -0.044831913 409
-0.71831912 3.1316798 -0.043780021 377
-0.78623682 2.9658818 -0.048945591 231
-0.82547474 2.7540855 -0.041773655 634
-0.96446729 2.7956469 -0.093491122 523
-0.59501594 2.7595387 -0.081023976 514
-0.70382178 2.7459464 -0.11573517 472
-0.79815948 2.6917119 -0.14117183 432
-0.84761697 2.5366821 -0.14130512 484
-0.53196734 2.5757437 -0.14494476 272
-0.64062464 2.57657 -0.1831326 189
-0.70301801 2.4587097 -0.18700765 288
-0.76570135 2.3528125 -0.19569816 261
-0.74424809 3.3007457 1.6081982 910
-0.87764019 3.2867606 1.5785846 1006
-1.0067751 3.2616477 1.5468205 894
-3.1963203 7.8626623 2.85324 712
-0.75151575 3.3200777 1.4728634 986
-0.87191772 3.27546 1.4343103 954
-0.99748802 3.243701 1.4024243 863
-3.7257299 9.0804434 2.809602 294
-0.7448554 3.3030777 1.3318603 1016
-0.86904389 3.2708478 1.2981939 981
-0.9957009 3.2436488 1.2674439 1008
-1.1407139 3.2586706 1.2466717 1059
-0.74242479 3.2960255 1.1985344 970
-0.86860502 3.2753901 1.1666533 1014
-0.99435842 3.2452075 1.1352707 1072
-1.1276418 3.2374971 1.1086688 1076
-0.74153882 3.2954574 1.0695728 1020
-0.86665469 3.27391 1.037469 977
-0.99122858 3.2450917 1.0061975 977
-1.1266773 3.2409596 0.97792512 1116
-0.73715401 3.2848179 0.93996751 975
-0.86740321 3.2791004 0.91019398 1019
-0.99250937 3.2521062 0.87847644 1046
-1.1316627 3.2550366 0.84930247 1102
-0.73545146 3.2838581 0.81446254 1093
-0.86060256 3.2650785 0.78235745 1034
-0.99522001 3.2642326 0.75225329 1018
-1.1230431 3.2405052 0.71928412 1053
-0.73914719 3.2974136 0.68898171 1080
-0.86314481 3.2756846 0.65652257 1061
-0.99565476 3.2669947 0.62406021 1023
-1.1244171 3.2470074 0.59049833 1072
-0.73646086 3.2945497 0.56377017 1056
-0.8617602 3.274348 0.53089345 1015
-0.99195939 3.2533798 0.49351272 1025
-1.1263156 3.2547193 0.4616386 1057
-0.73930359 3.3092625 0.43742415 1064
-0.85951 3.2716544 0.40484023 963
-0.99247569 3.2666428 0.36894625 1015
-1.1281893 3.2594481 0.33151779 1074
-0.73666346 3.3051383 0.31097266 1016
-0.85599941 3.2655756 0.27850232 917
-0.9873057 3.2587385 0.24099743 970
-1.1359653 3.2791944 0.19885136 1058
-0.74448502 3.336611 0.17975728 1022
-0.86291403 3.2918584 0.14671125 941
-0.98804426 3.2616081 0.11121483 913
-1.1328344 3.2754567 0.066516861 1044
-0.73035562 3.2982047 0.05616425 700
-1.0974287 3.9589021 -0.098602444 246
-1.3329259 4.1382213 -0.18296854 330
-1.0640576 3.117898 -0.036413342 422
-0.60992336 2.9198494 0.0011077467 565
-0.73118502 2.9262893 -0.037739478 300
-0.77436101 2.7240062 -0.031891428 444
-0.92146051 2.7912784 -0.088768348 526
-0.58860368 2.8587141 -0.10235666 689
-0.65779126 2.7232053 -0.1068927 492
-0.73304421 2.623759 -0.11935167 528
-0.86378324 2.6586847 -0.17219411 369
-0.52602267 2.6687493 -0.16845326 195
-0.60479504 2.5761101 -0.17965056 241
-0.66081208 2.4404628 -0.17752871 288
-0.73637503 2.3648357 -0.19543947 247
-0.70565379 3.3197455 1.6101451 959
-0.83914018 3.3064296 1.5801878 1014
-0.96321201 3.268451 1.5441414 1004
-3.1042185 7.9156513 2.8561945 965
-0.71017051 3.3308852 1.4723334 976
-0.8364175 3.3033819 1.4378272 988
-0.9534139 3.2484865 1.3996525 992
-3.6859822 9.2968874 2.8503385 940
-0.70399618 3.314723 1.3316137 1038
-0.82534933 3.2747648 1.2959456 999
-0.95795351 3.2648065 1.2685531 983
-1.0925297 3.257129 1.242799 1075
-0.70079136 3.3048074 1.1978003 994
-0.82451391 3.278296 1.1646383 1055
-0.95376098 3.2590101 1.1349199 1064
-1.083179 3.2438607 1.1068724 1055
-0.69818175 3.2985184 1.0681505 1021
-0.81677377 3.2598445 1.0335653 937
-0.9499166 3.2569911 1.0056795 978
-1.090335 3.2664585 0.97887331 1122
-0.69622034 3.2953994 0.93972713 1011
-0.82258826 3.2799971 0.90885723 998
-0.94967759 3.2602844 0.87776995 1073
-1.0803134 3.2457542 0.84711826 1081
-0.69337213 3.290591 0.8140294 1065
-0.81433702 3.2611308 0.78124464 1011
-0.94330335 3.2491026 0.75065255 1007
-1.0816332 3.2540495 0.71909148 1063
-0.69949758 3.3127918 0.689035 1063
-0.82126898 3.2849848 0.65638322 1033
-0.94905686 3.2658427 0.62382543 1006
-1.0797997 3.2532001 0.59044111 1088
-0.69366884 3.2993643 0.56378597 1057
-0.81570077 3.271328 0.53114158 1012
-0.95339203 3.2727261 0.49336693 1030
-1.0769266 3.2498977 0.46243665 1047
-0.69633442 3.314116 0.43773082 1082
-0.81607306 3.2761874 0.40532404 1004
-0.94554734 3.2645435 0.37007886 985
-1.0787592 3.2546906 0.33318868 1026
-0.69690663 3.3204763 0.31069908 983
-0.81553686 3.2785745 0.27855301 933
-0.94156539 3.2594132 0.24252647 959
-1.0874892 3.2773466 0.20106822 1036
-0.69634557 3.3253922 0.18260844 983
-0.81702036 3.2899125 0.14879695 934
-0.94652712 3.2734654 0.11171187 936
-1.0817471 3.267276 0.070503086 1054
-0.75272703 3.520822 0.022459203 402
-0.82127333 3.3056686 0.016808325 843
-1.2904465 4.1800489 -0.18710908 308
-1.028775 3.141649 -0.037893958 278
-0.58499515 2.9675002 -0.0062547671 549
-0.73518127 3.0566382 -0.06282042 232
-0.78890252 2.8631735 -0.060436703 323
-0.86771256 2.7602065 -0.077769957 636
-0.55847418 2.8862152 -0.10642401 719
-0.62649518 2.7412007 -0.10855901 509
-0.68217307 2.5872703 -0.10627093 554
-0.7782495 2.5480456 -0.1368192 436
-0.49322248 2.6786842 -0.16848211 386
-0.53367782 2.470263 -0.14509585 277
-0.63353127 2.4592485 -0.17979625 350
-0.6983186 2.3562286 -0.18851316 254
-0.66488141 3.3318458 1.6101096 946
-0.79126394 3.2982545 1.5735846 990
-0.91698414 3.2674468 1.5393524 1005
-2.9935236 7.9247022 2.8469198 918
-0.66844857 3.3402474 1.4715571 1015
-0.78973341 3.2986388 1.4330498 996
-0.91417289 3.2654567 1.4000685 1014
-3.5410233 9.2711954 2.832305 579
-0.66028762 3.3164735 1.3292621 1030
-0.78480732 3.2874055 1.2957073 1004
-0.91680479 3.2772448 1.267939 1022
-1.0547442 3.2794313 1.2438514 1112
-0.65800327 3.3092806 1.1963686 987
-0.78083682 3.2815514 1.1627889 998
-0.91611236 3.2806399 1.135968 1078
-1.0421695 3.2578528 1.1063924 1080
-0.6609664 3.3219407 1.0697787 1024
-0.77795881 3.2770774 1.0340434 968
-0.9098857 3.2720904 1.0056401 990
-1.0433677 3.2667351 0.97685111 1118
-0.65297222 3.2978261 0.9386695 988
-0.77699459 3.2774518 0.90724307 1034
-0.90614939 3.2660322 0.87689769 1050
-1.0354778 3.2504628 0.84611672 1099
-0.65626723 3.3140419 0.8147887 1112
-0.77550739 3.2783587 0.78143382 1062
-0.90509427 3.2688053 0.75084978 990
-1.0370698 3.25967 0.71859854 1082
-0.65269721 3.3036838 0.68834496 1084
-0.77809411 3.2899511 0.65616357 1040
-0.90545112 3.2715461 0.62367815 1028
-1.0329691 3.2532368 0.59037739 1054
-0.65285289 3.3103521 0.5637573 1045
-0.77456182 3.2819257 0.53115213 997
-0.90450162 3.2644196 0.49398896 1018
-1.0377216 3.2684026 0.46232513 1090
-0.65754473 3.3328171 0.43739554 1090
-0.77922356 3.3000791 0.40471292 1044
-0.90437961 3.2767744 0.37022477 962
-1.0387355 3.2713673 0.3331472 994
-0.65197688 3.31809 0.31185204 1038
-0.77895278 3.3033798 0.2774539 944
-0.89806163 3.2650633 0.24346802 951
-1.044925 3.2886066 0.20167208 1039
-0.65739566 3.3440535 0.1817645 978
-0.77596557 3.3014865 0.14900957 908
-0.90593767 3.2875865 0.11180678 927
-1.0396917 3.2794068 0.07118094 1026
-0.76869231 3.7406516 -0.010642992 579
-0.77421689 3.2994735 0.020152712 401
-1.2308997 4.1770473 -0.18306923 230
-0.87025416 2.8645425 0.020034699 469
-0.54987395 2.9828594 -0.0072261803 548
-0.69639379 3.065382 -0.062066056 263
-0.71260411 2.7642493 -0.035263598 481
-0.82156789 2.744508 -0.070664681 690
-0.51100671 2.854351 -0.096363232 645
-0.5970034 2.7653108 -0.11185992 556
-0.68203855 2.6856689 -0.12937194 416
-0.76340002 2.6013784 -0.14823379 407
-0.44426018 2.6315556 -0.15259498 321
-0.50331312 2.4803066 -0.14512374 258
-0.60857373 2.4849434 -0.18430123 262
-0.67296886 2.377157 -0.19144209 225
-0.62396359 3.3434451 1.6100746 974
-0.75249505 3.3169072 1.575189 1017
-0.87911713 3.2884994 1.5411605 1037
-1.0142266 3.2765641 1.51578 979
-0.62768364 3.3528228 1.4717691 1020
-0.7483297 3.3089936 1.432302 1001
-0.87601787 3.2856188 1.4013954 1039
-1.0062058 3.2672672 1.3733493 1003
-0.62137789 3.3346109 1.3307012 1023
-0.74530768 3.3032792 1.2962734 990
-0.87355727 3.2836204 1.2661762 1030
-1.0071443 3.2775528 1.240163 1098
-0.61683112 3.3188963 1.1959848 1006
-0.73962808 3.2917528 1.1622581 979
-0.87014824 3.2795076 1.1332883 1055
-0.99480587 3.2557018 1.1034284 1088
-0.61462277 3.3134429 1.0668334 969
-0.73470956 3.2806079 1.0327187 963
-0.86134428 3.2633147 1.0026149 985
-0.99917305 3.2728195 0.9756 1121
-0.61087352 3.3035238 0.93802154 994
-0.73343003 3.2799814 0.90618646 1001
-0.86400467 3.2749593 0.87635934 1052
-0.99809301 3.2730999 0.84659284 1112
-0.61475968 3.3226459 0.81455547 1101
-0.73642278 3.2951238 0.7816236 1024
-0.86190909 3.2748804 0.75038582 983
-0.99662626 3.2749078 0.7185201 1102
-0.6099872 3.3074205 0.68807244 1088
-0.73436683 3.2924454 0.65590423 1062
-0.86189413 3.2766728 0.62353158 1003
-0.99260283 3.2684231 0.59033543 1063
-0.61112189 3.3179421 0.5637486 1011
-0.7312333 3.2853296 0.53127468 1008
-0.86403954 3.2780156 0.4939768 1000
-0.99422783 3.2762105 0.46259961 1067
-0.6110453 3.3240857 0.43826082 1074
-0.7320891 3.2921145 0.40582445 1018
-0.85710436 3.2715509 0.3714827 949
-0.9981432 3.2866237 0.33317769 997
-0.60962671 3.3237553 0.31229284 986
-0.73150235 3.2945116 0.27945289 930
-0.85725957 3.2776444 0.2436257 972
-1.0001018 3.2937689 0.20292237 1036
-0.61787564 3.3613005 0.18103656 981
-0.73361081 3.3087609 0.14972264 907
-0.85990816 3.2862539 0.11405078 929
-0.99500418 3.284554 0.072866857 992
-0.61480671 3.3577361 0.052266568 313
-0.7142418 3.250231 0.030745322 334
-1.1752743 4.1834383 -0.18090284 311
-1.1982942 3.7991605 -0.16111967 350
-0.51167333 2.9873779 -0.0061292434 576
-0.60560042 2.907043 -0.026201835 609
-0.69359475 2.8189106 -0.044801116 445
-0.77921307 2.73627 -0.065505661 527
-0.45629019 2.7916651 -0.079124607 595
-0.57717067 2.8216021 -0.12333581 723
-0.64805281 2.6947722 -0.12867498 482
-0.71825987 2.5809369 -0.13890725 545
-0.41041338 2.6348979 -0.15105674 319
-0.49654019 2.5662904 -0.16757865 254
-0.57610905 2.4904714 -0.1826521 251
-0.6314162 2.3577673 -0.18132532 303
-0.57826447 3.33692 1.6046584 951
-0.71147346 3.3286622 1.5748791 1037
-0.83808464 3.3009064 1.5405946 1006
-0.97256261 3.2888467 1.5147203 1076
-0.583543 3.3527188 1.4687724 1020
-0.70514268 3.3132505 1.4301331 989
-0.83564782 3.2998111 1.4013573 1038
-0.95972621 3.2666709 1.3693769 1079
-0.57619178 3.3296037 1.3270881 990
-0.70273894 3.3093035 1.294831 1009
-0.8296985 3.2875721 1.2640313 1034
-0.96650749 3.2924364 1.2399403 1097
-0.57356137 3.3203824 1.1942058 982
-0.69490308 3.2901089 1.1597514 998
-0.82664132 3.2842836 1.1316971 1010
-0.95620728 3.2750466 1.103973 1058
-0.57468122 3.3272965 1.0672151 1018
-0.69383162 3.2911661 1.0324252 966
-0.82413691 3.28578 1.0036522 993
-0.9528982 3.2727432 0.97368956 1116
-0.57181305 3.320231 0.93860114 1003
-0.6908294 3.2847955 0.90540886 1049
-0.81505162 3.2635431 0.87407309 1004
-0.95964062 3.2934449 0.84692174 1133
-0.57419837 3.3345909 0.81458771 1118
-0.69103861 3.2913477 0.7806263 1058
-0.82198364 3.2898419 0.75039506 1016
-0.94851977 3.2700408 0.71765286 1062
-0.57214653 3.3289781 0.68836576 1080
-0.6887241 3.2876623 0.65550399 1052
-0.82033038 3.2869022 0.62345052 1037
-0.94778568 3.2718968 0.59027958 1071
-0.56782931 3.3192027 0.56377965 1030
-0.69028705 3.2958248 0.53127074 996
-0.82019323 3.2816505 0.49423012 1018
-0.94789636 3.2759738 0.46315527 1061
-0.57323635 3.3466182 0.43771246 1068
-0.6910587 3.3026214 0.40589303 1020
-0.81817681 3.2892859 0.37119788 995
-0.94707561 3.2743473 0.33528 1004
-0.56828725 3.3327403 0.31241739 1010
-0.68643641 3.2916579 0.28083333 925
-0.8166492 3.2906582 0.2436859 954
-0.94721597 3.2769587 0.20664898 983
-0.57632548 3.371351 0.18111783 948
-0.69408405 3.3249989 0.14918688 894
-0.81823558 3.2964878 0.11454996 902
-0.95109689 3.2909498 0.074265793 1012
-0.5402745 3.2405081 0.072559223 363
-0.63020229 3.1149182 0.05583515 472
-0.81179994 3.2811248 -0.012894964 342
-0.92487472 3.2215247 -0.044494107 189
-0.45626274 2.9248495 0.0081283581 633
-0.58388883 2.9649081 -0.036096007 645
-0.68910301 2.9198446 -0.064671129 360
-0.7518189 2.7657309 -0.069434382 487
-0.43489444 2.8507469 -0.091039404 610
-0.54609895 2.8442678 -0.12640302 679
-0.63358301 2.7613349 -0.14327782 597
-0.66724181 2.5426059 -0.12477323 543
-0.38380009 2.6658571 -0.15734571 297
-0.44469482 2.5075784 -0.1476101 234
-0.5144074 2.409184 -0.15442726 324
-0.59696758 2.3547111 -0.17671567 304
-0.536825 3.3455951 1.6040584 957
-0.66817349 3.3325205 1.5723817 992
-0.79207057 3.298152 1.535808 982
-0.93113321 3.3015063 1.5139161 1135
-0.54025197 3.3548574 1.4665172 1001
-0.66011363 3.310416 1.4263062 1000
-0.78685015 3.2885456 1.3951743 1026
-0.92536473 3.2974408 1.3730508 1123
-0.53672761 3.345803 1.3283179 1011
-0.65745234 3.3053722 1.2913804 973
-0.79053676 3.3049231 1.2647599 1033
-0.92023075 3.2920661 1.2368007 1099
-0.53278393 3.3308594 1.1941724 939
-0.65531003 3.3049195 1.1602103 1002
-0.78504974 3.2941155 1.1310384 1052
-0.91286725 3.2818713 1.1026182 1067
-0.53165478 3.3291392 1.0659347 1027
-0.65147436 3.2964511 1.0314884 984
-0.78097147 3.2908449 1.0025398 969
-0.91439408 3.2925396 0.97420025 1097
-0.53175652 3.3335803 0.93887448 993
-0.64992285 3.2947993 0.90518826 993
-0.77619141 3.2807729 0.87436903 1036
-0.91846871 3.3067882 0.8467344 1115
-0.53155053 3.3382955 0.81409109 1100
-0.6514309 3.3061445 0.78076088 986
-0.7790665 3.2957735 0.74997979 1042
-0.90832388 3.28512 0.71761346 1064
-0.52980542 3.3336146 0.6881541 1050
-0.64777774 3.2976301 0.65542853 1011
-0.77713466 3.2918539 0.62331641 993
-0.90652966 3.2841506 0.5902366 1056
-0.52705634 3.3296056 0.56374645 1043
-0.65338135 3.320225 0.53102851 1015
-0.77892625 3.2923033 0.49427232 977
-0.9083125 3.2929199 0.46304575 1055
-0.52923727 3.3454483 0.43819359 1066
-0.65185481 3.3193362 0.40559679 998
-0.7734105 3.289479 0.37202528 936
-0.90853959 3.2940879 0.33488345 1022
-0.53117859 3.3586285 0.31111613 1024
-0.64763421 3.3092618 0.28026715 926
-0.7718839 3.2908685 0.24502218 960
-0.90795392 3.2948184 0.20628667 1006
-0.52966321 3.3606377 0.18362603 965
-0.65158689 3.3312244 0.14990133 917
-0.77495146 3.3014832 0.11572136 936
-0.91301703 3.3125596 0.073218748 1012
-0.46687049 3.1142983 0.094068699 470
-0.64151895 3.2997668 0.02632652 316
-0.76109624 3.2626641 -0.0071366727 265
-1.1249423 3.8901989 -0.17201573 252
-0.42384428 2.9482169 0.005279135 678
-0.53777611 2.9415908 -0.029026024 628
-0.67228651 2.9903762 -0.077723153 406
-0.71377975 2.7674303 -0.066870682 540
-0.40682632 2.8879461 -0.097796172 724
-0.51433647 2.8656588 -0.12923636 577
-0.59154773 2.7476721 -0.13675144 568
-0.6689648 2.6442041 -0.14984773 414
-0.35538974 2.6918669 -0.16232994 247
-0.42466331 2.5545001 -0.15871613 264
-0.49547052 2.4518681 -0.16452542 349
-0.58385646 2.4086604 -0.19066021 297
-0.49331164 3.3453572 1.6009099 951
-0.62956136 3.3525014 1.5748084 1022
-0.75593799 3.3251028 1.5397284 1048
-0.88795018 3.3090937 1.5118388 1109
-0.50062734 3.3715241 1.4682122 1030
-0.62282765 3.3341286 1.4293517 986
-0.74380094 3.2932899 1.3930893 1026
-0.88188511 3.3039687 1.3710458 1088
-0.49316049 3.3453636 1.3259695 1026
-0.62051165 3.3300982 1.2941582 987
-0.7413404 3.2909291 1.2591695 1004
-0.88109797 3.3105035 1.237491 1090
-0.49142665 3.3389189 1.1937909 995
-0.61287838 3.3097448 1.1590228 988
-0.74249327 3.300596 1.1299144 1056
-0.87154001 3.2937186 1.1021409 1100
-0.48940039 3.3333185 1.0650705 1026
-0.61388087 3.3184011 1.0328708 943
-0.73814994 3.2962925 1.0015476 1005
-0.87026918 3.2968972 0.97295135 1093
-0.4917326 3.3474135 0.93925071 1003
-0.61262029 3.317733 0.90626639 1024
-0.73498207 3.2908862 0.8740828 1054
-0.86948764 3.2980006 0.84485036 1088
-0.49376285 3.3618479 0.81498474 1115
-0.61107993 3.3185382 0.78078282 1009
-0.73407745 3.2944767 0.74923468 980
-0.87228394 3.31195 0.71806318 1115
-0.49138731 3.3542516 0.68844831 1106
-0.61043984 3.3205857 0.65563679 1033
-0.73518491 3.3000576 0.62322599 1017
-0.86816299 3.3043692 0.59020495 1077
-0.48501188 3.334641 0.56374645 1072
-0.60650826 3.3094988 0.53136057 974
-0.73546743 3.2957623 0.49450073 1002
-0.86450464 3.2980795 0.46335763 1065
-0.48654234 3.348567 0.43846115 1077
-0.6108073 3.3298061 0.40561441 989
-0.73179084 3.2985959 0.37223586 966
-0.8590734 3.2832797 0.33677363 997
-0.48946464 3.3666363 0.31124187 1026
-0.6106497 3.3340948 0.27899313 937
-0.73262507 3.3075755 0.2445932 936
-0.86777943 3.3103325 0.20614019 1025
-0.49132162 3.3831398 0.18209118 957
-0.61039197 3.3416948 0.14999165 908
-0.73584986 3.3191562 0.11501323 931
-0.86900014 3.3178635 0.074619152 1016
-0.4994092 3.4266727 0.046249174 391
-0.54339433 3.0996716 0.062051594 478
-0.67990762 3.1437488 0.016692044 394
-0.75910074 3.0057144 0.0029679593 380
-0.40143189 3.016186 -0.0064066779 488
-0.49391359 2.9232697 -0.023138411 706
-0.60377342 2.9002733 -0.055230208 667
-0.6998958 2.8367443 -0.080321394 434
-0.36385694 2.8641255 -0.090198323 672
-0.44094098 2.7346718 -0.094225012 584
-0.56123447 2.7695198 -0.13969645 617
-0.62776101 2.6312628 -0.14304841 417
-0.32427239 2.7081714 -0.16470455 275
-0.40082225 2.5910795 -0.16684984 323
-0.47560677 2.4944448 -0.17462385 251
-0.55360514 2.4175198 -0.19010875 276
-0.45413098 3.363272 1.6034269 936
-0.58765471 3.3608751 1.5739535 1014
-0.71256691 3.3295143 1.5373178 1014
-0.84445107 3.3152056 1.5095074 1136
-0.45902014 3.3801582 1.4679331 975
-0.57816398 3.3311195 1.4257635 976
-0.70447856 3.3095858 1.3939636 1015
-0.83779508 3.3080814 1.3686049 1126
-0.44887412 3.3405445 1.3227799 999
-0.57512009 3.3241003 1.2905083 968
-0.70404607 3.3137994 1.26124 1025
-0.83690763 3.3145256 1.2354472 1105
-0.44697946 3.3330138 1.1909671 956
-0.57122487 3.316889 1.1583302 1002
-0.70480692 3.3226018 1.1314313 1064
-0.83042538 3.3059816 1.1018106 1057
-0.45020124 3.3504918 1.0661471 1066
-0.56884187 3.3130658 1.0306473 966
-0.69707888 3.3068891 1.0012729 1032
-0.82654178 3.3016095 0.9718135 1112
-0.45236346 3.3646488 0.94003618 1003
-0.57060522 3.3238721 0.90576893 1004
-0.69656157 3.3100231 0.87462962 1050
-0.8241269 3.2979507 0.84370536 1091
-0.44725496 3.3479691 0.8133648 1076
-0.56804097 3.3207803 0.7802403 1020
-0.69072187 3.2973573 0.74872655 973
-0.82352704 3.3024414 0.71708578 1086
-0.44605422 3.3451791 0.68785185 1068
-0.5678789 3.3247409 0.65546143 1062
-0.68772817 3.2895331 0.6229322 1007
-0.82175452 3.3014174 0.59014553 1055
-0.44579452 3.351835 0.56366247 1056
-0.56181067 3.3048975 0.531582 982
-0.69439203 3.3063095 0.49451783 982
-0.82268113 3.3083389 0.46345991 1098
-0.4449794 3.3560188 0.43851498 1070
-0.56737959 3.3310711 0.40610278 956
-0.69268733 3.3157918 0.37189111 966
-0.81807393 3.2953694 0.3368786 1007
-0.44616836 3.3673136 0.31192318 994
-0.56567216 3.329597 0.2803759 927
-0.69083625 3.3161857 0.24494982 971
-0.82644761 3.3225319 0.20631731 1026
-0.4480468 3.3848381 0.1829834 991
-0.56908327 3.3516557 0.1500826 927
-0.6925028 3.3230734 0.11618607 912
-0.82789499 3.3310223 0.074724823 1003
-0.43857646 3.3512862 0.05956801 427
-0.51917636 3.1632886 0.052999124 559
-0.61843622 3.0790589 0.030466294 443
-0.79793233 3.2420681 -0.040286459 282
-0.36522388 3.0284035 -0.0071874503 456
-0.44350734 2.8767953 -0.011528478 577
-0.56812799 2.9111452 -0.055261672 634
-0.68728143 2.9144464 -0.095720798 372
-0.31907681 2.8282671 -0.079907686 568
-0.4134143 2.7670949 -0.1000932 592
-0.53439552 2.8040509 -0.14604169 586
-0.62928909 2.7423139 -0.17065474 392
-0.28771535 2.700536 -0.1605549 368
-0.37787265 2.6339803 -0.17687535 327
-0.42850435 2.4485669 -0.15786476 322
-0.51557302 2.4033451 -0.18230823 403
-0.4164167 3.3891714 1.6084936 960
-0.54427612 3.3631282 1.5714583 1029
-0.66709065 3.3259537 1.5327976 1024
-0.80006772 3.3179953 1.5064127 1134
-0.41270107 3.3664744 1.461978 976
-0.53654963 3.3388262 1.4250193 989
-0.66301268 3.318866 1.3932453 1055
-0.79347622 3.3106842 1.3659464 1136
-0.41210982 3.3695755 1.3271688 990
-0.53406066 3.3336458 1.2902741 952
-0.66033465 3.3155088 1.2590982 1025
-0.79064232 3.3114262 1.2321279 1084
-0.40890872 3.3554232 1.1933786 958
-0.53048992 3.3273373 1.1582971 972
-0.65740168 3.311914 1.1276691 1046
-0.78702462 3.3111527 1.1004581 1084
-0.41028976 3.3652656 1.0669471 1034
-0.52623212 3.3157868 1.0295838 981
-0.65562898 3.3160195 1.0008793 998
-0.7828756 3.3057463 0.97067642 1114
-0.40878907 3.362927 0.93888068 1001
-0.53122443 3.3401079 0.9062919 1051
-0.65341467 3.3133898 0.87384522 1006
-0.78297925 3.3096063 0.84352046 1114
-0.40593654 3.3559151 0.81326735 1077
-0.52869725 3.3370004 0.78054613 987
-0.65379727 3.3217511 0.74930519 1014
-0.78263247 3.3150344 0.7170108 1121
-0.40847218 3.3707151 0.68832546 1024
-0.52487177 3.3264112 0.65524632 1045
-0.65227956 3.3187099 0.62309033 1008
-0.78273255 3.3196912 0.59011406 1087
-0.40504104 3.362695 0.56361812 1064
-0.522416 3.32008 0.53146923 1004
-0.65017354 3.3057773 0.49482742 962
-0.77923262 3.3133178 0.46373829 1041
-0.40519473 3.3717561 0.43818337 1063
-0.52477837 3.3346813 0.40643522 969
-0.64370167 3.2989402 0.37370968 922
-0.77664334 3.3059986 0.33705568 1045
-0.40297467 3.3674366 0.31260535 997
-0.52715695 3.3496411 0.27945715 917
-0.65254617 3.3367083 0.24403131 973
-0.78560805 3.3361063 0.20627972 1033
-0.40606576 3.3918192 0.183183 965
-0.52885461 3.3659227 0.14954925 873
-0.65384227 3.3426261 0.11507611 882
-0.78633678 3.342731 0.074975073 1031
-0.40223631 3.3833234 0.055895343 846
-0.45625025 3.0753534 0.069399595 496
-0.61546427 3.2123339 0.0084412117 261
-0.72612679 3.1570799 -0.021413377 324
-0.32444036 3.019027 -0.0038309069 330
-0.4133082 2.9066477 -0.015897499 624
-0.52966863 2.9121699 -0.053225771 675
-0.63121223 2.8641415 -0.08125212 545
-0.29299986 2.877645 -0.089803502 521
-0.39793044 2.8511915 -0.11881078 528
-0.48612881 2.7655616 -0.13344046 384
-0.57970399 2.7047536 -0.15727672 457
-0.25221601 2.6961961 -0.15744829 295
-0.342765 2.630877 -0.1736584 265
-0.39578611 2.4480877 -0.15509297 255
-0.48009592 2.3949738 -0.17653637 427
-0.37200898 3.3836074 1.6042143 929
-0.49941593 3.358274 1.5670494 973
-0.63011599 3.3515208 1.5367194 1053
-0.76165396 3.3386252 1.5084134 1117
-0.37099618 3.3730745 1.4614536 985
-0.49352998 3.3403425 1.4228543 966
-0.61860931 3.3173044 1.3900247 1056
-0.75191963 3.3210709 1.3652543 1110
-0.36940908 3.3713565 1.3256648 989
-0.49086237 3.3341064 1.2882329 985
-0.61961168 3.3270514 1.2590635 1018
-0.75084823 3.3273804 1.2326379 1115
-0.36982462 3.3745005 1.1952671 960
-0.48803872 3.3305662 1.1571118 1003
-0.61803538 3.328181 1.1284108 1018
-0.7478292 3.3289669 1.1011517 1107
-0.36723644 3.3649919 1.0656694 1013
-0.4868809 3.3314726 1.030324 991
-0.61331528 3.3217595 1.0001283 997
-0.74345034 3.3225844 0.97107953 1135
-0.3647902 3.3577161 0.93741953 1006
-0.4867714 3.3355265 0.90486896 1008
-0.60848731 3.3094707 0.8724792 1062
-0.73753268 3.3074281 0.8423034 1121
-0.36511642 3.3662879 0.81336898 1080
-0.48771214 3.3469231 0.78051353 1026
-0.61483842 3.3399537 0.74960095 1060
-0.74070179 3.3242602 0.71682388 1099
-0.36475575 3.3673921 0.68793839 1051
-0.48401499 3.3362873 0.65521389 1049
-0.60807246 3.3176122 0.62291628 1004
-0.73686111 3.3165071 0.59005749 1047
-0.36277962 3.3661916 0.56362015 1042
-0.48689514 3.3523128 0.53106946 1019
-0.61220354 3.3268313 0.49452761 978
-0.73583162 3.3177299 0.46401748 1052
-0.36475039 3.3850603 0.43793806 1121
-0.48107916 3.3328869 0.40702969 987
-0.60868979 3.3304942 0.37237743 950
-0.73571515 3.3180115 0.33709049 993
-0.36046642 3.3699424 0.31305042 1011
-0.48214751 3.3430536 0.28093013 919
-0.60919178 3.3395064 0.24487996 935
-0.74697512 3.3567705 0.20538127 1050
-0.36421651 3.3992543 0.18326777 1051
-0.48772967 3.3768077 0.14939147 892
-0.61016351 3.3445194 0.11638476 874
-0.73906547 3.3359714 0.077961475 999
-0.35822099 3.3790748 0.057837233 782
-0.47024006 3.3064294 0.032153986 282
-0.5594368 3.1624744 0.019319406 328
-0.67590255 3.1328111 -0.014424319 403
-0.26900211 2.9319777 0.014570149 607
-0.37782177 2.9161367 -0.016123056 588
-0.49080181 2.9108024 -0.050775744 652
-0.5925191 2.8641686 -0.078686416 754
-0.24821112 2.8359101 -0.078389354 594
-0.35564795 2.8282847 -0.1111285 609
-0.44020516 2.7309985 -0.12205225 575
-0.55164552 2.7319682 -0.16186088 484
-0.2036043 2.6221905 -0.13528994 428
-0.31239843 2.647007 -0.17611633 229
-0.38355336 2.5222263 -0.17498331 295
-0.46179396 2.43999 -0.18787147 188
-0.3318814 3.3991513 1.6064498 950
-0.45839697 3.3687785 1.5672907 987
-0.58698422 3.3552313 1.5345747 1067
-0.71810645 3.343086 1.5060844 1150
-0.33154541 3.3915424 1.4641382 982
-0.45251757 3.3498371 1.4228222 975
-0.58134949 3.3415163 1.3931764 1003
-0.71112323 3.3337371 1.3652179 1104
-0.32516325 3.3639472 1.3222671 998
-0.4509972 3.3483472 1.2892052 977
-0.57599938 3.3276529 1.2569233 986
-0.70769387 3.3325038 1.2311432 1101
-0.32551801 3.3669844 1.1924455 986
-0.44778872 3.3428802 1.1575737 981
-0.57288766 3.3229611 1.1257373 1007
-0.70007622 3.3188498 1.0976095 1065
-0.32447809 3.3651433 1.0645312 998
-0.44597128 3.3408842 1.0302922 952
-0.56999791 3.3231182 0.99890041 1015
-0.70234311 3.3341928 0.97093338 1126
-0.32465455 3.3714952 0.93800253 977
-0.44602674 3.3459072 0.90492976 983
-0.57161891 3.3348362 0.87369347 1047
-0.7009145 3.3332872 0.84329998 1118
-0.32324055 3.3712575 0.81314063 1099
-0.44270292 3.3388004 0.77946466 985
-0.5692696 3.3335357 0.74871737 1022
-0.69928217 3.3348711 0.71671265 1109
-0.32340878 3.3753002 0.68790841 1053
-0.44282317 3.3446848 0.65516186 1048
-0.56504554 3.3198009 0.62278599 1013
-0.69237924 3.3165312 0.59000659 1034
-0.32380238 3.3868592 0.56350511 1046
-0.4396528 3.334389 0.53148496 1001
-0.57107949 3.3368106 0.4945201 1040
-0.69248515 3.3215766 0.46429747 1072
-0.32209834 3.3870699 0.43816555 1070
-0.44014192 3.3422234 0.40699792 966
-0.56174546 3.3182127 0.37382707 938
-0.69322592 3.3247399 0.33748341 1004
-0.32052109 3.3856392 0.3123861 1034
-0.44043779 3.349484 0.28116399 937
-0.56591237 3.3417437 0.24572936 948
-0.69604564 3.3369794 0.20900641 1006
-0.32121921 3.400311 0.18404669 974
-0.44432524 3.3775012 0.15048449 929
-0.56608492 3.3439267 0.11796291 885
-0.6935392 3.3332989 0.080229014 959
-0.32061979 3.4082911 0.054468848 383
-0.38206685 3.0997343 0.068212524 408
-0.49810642 3.0859771 0.034803018 635
-0.59830594 3.0135319 0.010577453 610
-0.28089812 3.2025552 -0.036794461 372
-0.34768134 2.9500873 -0.021478133 577
-0.44057199 2.8644028 -0.038609996 598
-0.56150597 2.8889375 -0.081964418 712
-0.21459588 2.8491364 -0.079984695 504
-0.31590769 2.8133221 -0.10554788 592
-0.40495062 2.7333009 -0.12037954 580
-0.52748013 2.7737308 -0.17049323 329
-0.19017142 2.732688 -0.164021 301
-0.27741218 2.6430354 -0.17289811 324
-0.35640195 2.5452971 -0.17948568 282
-0.42138252 2.4143121 -0.17687899 320
-0.2901628 3.4066589 1.6064202 959
-0.4186399 3.3853674 1.5694469 1001
-0.54531348 3.3640013 1.5340135 1054
-0.67433912 3.3460526 1.5035015 1097
-0.29141039 3.4076385 1.4663296 949
-0.41380954 3.3702326 1.4256337 974
-0.54007858 3.3511438 1.3929152 1016
-0.66772681 3.3374674 1.363217 1103
-0.28654391 3.3867848 1.3256052 1005
-0.40765625 3.346776 1.2869647 949
-0.53537196 3.3391116 1.2570815 1025
-0.66402584 3.3351808 1.229285 1052
-0.28418744 3.3744137 1.1924163 929
-0.40409631 3.3392658 1.1554021 1000
-0.53375363 3.340138 1.1267906 1080
-0.6587584 3.3289773 1.0972819 1059
-0.2845192 3.3803663 1.0656101 968
-0.40556237 3.352704 1.0306472 983
-0.52894413 3.3325868 0.99874783 1009
-0.65671325 3.3300087 0.96902901 1086
-0.28360325 3.3808725 0.93817759 1005
-0.40473601 3.3538406 0.90480584 1003
-0.5289765 3.3385167 0.87307775 1023
-0.65776086 3.3376558 0.84267443 1113
-0.28134257 3.3757067 0.81291294 1061
-0.40252241 3.3515761 0.77965957 996
-0.52856398 3.3449259 0.74873126 1026
-0.65583175 3.3382411 0.71633953 1093
-0.28179803 3.3817151 0.6878494 1047
-0.39928871 3.3418097 0.65488857 1036
-0.52378535 3.3282287 0.62273151 1039
-0.65190506 3.3294244 0.58997244 1062
-0.28204823 3.3932769 0.56348222 1031
-0.39972609 3.3481114 0.53137392 954
-0.52599484 3.3307581 0.49493816 988
-0.6530447 3.3383133 0.46408656 1042
-0.28118306 3.3983903 0.43796441 1083
-0.40215522 3.3657203 0.4061828 1025
-0.52600557 3.3488891 0.37249568 960
-0.65072769 3.3309255 0.33787706 999
-0.27693295 3.3812096 0.31330848 979
-0.39868805 3.3553944 0.28139853 933
-0.52842748 3.3666143 0.24422362 979
-0.65913188 3.3632922 0.20735541 1037
-0.27796268 3.3988667 0.18505757 972
-0.40102279 3.3776391 0.15157831 902
-0.52476412 3.3533416 0.118064 918
-0.65908504 3.3680811 0.076737814 974
-0.27793679 3.4107783 0.055198163 348
-0.3929033 3.3436639 0.028869236 279
-0.46489596 3.1146765 0.031362079 379
-0.59443939 3.1406822 -0.011609711 404
-0.24091342 3.2055686 -0.036069859 285
-0.30111361 2.9078934 -0.011244931 428
-0.40981591 2.8913274 -0.042565972 631
-0.53162509 2.9190075 -0.086541019 714
-0.18817319 2.9061701 -0.091898978 344
-0.27663437 2.7978139 -0.09996628 435
-0.37829697 2.7700095 -0.12769464 451
-0.47719973 2.7269251 -0.1550878 462
-0.14373526 2.6613712 -0.14290433 211
-0.24067448 2.6291752 -0.1669763 241
-0.32787216 2.5643487 -0.18286864 228
-0.39092326 2.4202213 -0.17603472 356
-0.24744135 3.4079723 1.6046922 976
-0.378025 3.3986568 1.5707831 994
-0.50512773 3.3788216 1.5352993 1046
-0.63531768 3.3652191 1.505504 1134
-0.25097558 3.4232585 1.4685216 991
-0.36958921 3.3644543 1.4220494 937
-0.49645042 3.3507881 1.3903795 1000
-0.62439144 3.3406353 1.3612167 1084
-0.24544097 3.396631 1.3262079 995
-0.36771548 3.3609803 1.288139 932
-0.49187493 3.3386142 1.2549428 997
-0.62253743 3.3448713 1.2288854 1084
-0.24417493 3.3900855 1.1939576 989
-0.36578494 3.3612065 1.1576765 1004
-0.49455714 3.3578146 1.128 1065
-0.61708063 3.3376369 1.096809 1027
-0.24239784 3.3833795 1.0650272 991
-0.36131841 3.3455505 1.0285566 952
-0.48961323 3.3492782 0.99955082 1020
-0.6168595 3.3453383 0.96943396 1143
-0.24288768 3.3926964 0.93865961 1009
-0.36297703 3.3593113 0.90449727 1002
-0.48568976 3.338743 0.87221324 1008
-0.61096203 3.3280025 0.84101748 1086
-0.24100405 3.3894885 0.81334716 1039
-0.36310524 3.3687656 0.78013718 1016
-0.4867959 3.3519289 0.74855709 1064
-0.6145575 3.3487594 0.71626729 1100
-0.24059647 3.390578 0.6878801 1029
-0.36172539 3.3678014 0.65522116 1047
-0.48130608 3.3312767 0.6226241 995
-0.61021072 3.3379643 0.58993441 1039
-0.23960197 3.3952296 0.56348628 1035
-0.35726124 3.3495812 0.53145546 981
-0.48737091 3.3503773 0.49464008 1004
-0.60992688 3.3420463 0.46433288 1041
-0.2383623 3.3983619 0.43823627 1083
-0.35851571 3.3623259 0.40677944 978
-0.4794125 3.3354511 0.37394708 929
-0.60980064 3.3423433 0.3378424 991
-0.2385321 3.4077287 0.31169358 1014
-0.35862643 3.3695829 0.28083652 967
-0.4827739 3.3581147 0.24605617 966
-0.61388808 3.3604209 0.20893614 1021
-0.23823789 3.4184594 0.18352608 1007
-0.35782915 3.377224 0.15267296 905
-0.48424286 3.3661058 0.11762825 913
-0.61302537 3.3624086 0.07929486 983
-0.23543993 3.4137082 0.055776462 355
-0.35353145 3.3606341 0.027388694 249
-0.40540329 3.0326588 0.047531359 323
-0.51817435 3.0128388 0.014657093 551
-0.2070104 3.2468979 -0.042867377 210
-0.26876187 2.9323735 -0.014823182 601
-0.36520034 2.8607502 -0.034118593 641
-0.47423369 2.8498588 -0.068386838 713
-0.16312334 2.9803092 -0.10785171 251
-0.2483682 2.8361807 -0.10770245 534
-0.34953094 2.800802 -0.13355213 601
-0.42692557 2.6746442 -0.13841547 408
-0.11591462 2.6980987 -0.15153958 346
-0.18446417 2.5117757 -0.13159154 334
-0.29593337 2.5699892 -0.18233393 247
-0.3609311 2.4275935 -0.17576988 280
-0.21435857 3.4592657 1.617193 815
-0.33734143 3.4012003 1.5683542 1015
-0.46551925 3.3875663 1.5342584 1029
-0.5935902 3.3670652 1.5021923 1158
-0.21408802 3.4501011 1.4728969 900
-0.33448711 3.3945045 1.4267112 963
-0.45546094 3.3517914 1.3875624 1004
-0.5891847 3.3658206 1.3637276 1102
-0.21033044 3.4332254 1.3319286 891
-0.32783216 3.3651602 1.2865554 971
-0.45318019 3.3490398 1.2543653 1008
-0.57928669 3.3396873 1.2250279 1053
-0.2039623 3.3917873 1.1922915 855
-0.32680678 3.3701546 1.1570598 959
-0.45218381 3.3528242 1.1249014 1022
-0.57592165 3.3399112 1.0947353 1028
-0.20590636 3.4094934 1.0669996 965
-0.32452381 3.3651481 1.0293212 943
-0.4475596 3.3450942 0.99711144 1001
-0.57586539 3.3484983 0.96779335 1127
-0.20615704 3.4178896 0.93980044 952
-0.32294771 3.3623025 0.90325415 972
-0.44810438 3.3538847 0.87194204 1038
-0.57547194 3.3513002 0.84121406 1072
-0.20431949 3.4146886 0.81380403 1064
-0.3209759 3.3609152 0.77845407 1012
-0.44450444 3.3465924 0.74708068 1005
-0.57151717 3.3440545 0.71490657 1093
-0.20025697 3.3910558 0.68690807 1030
-0.32124993 3.3687313 0.65429848 1017
-0.4446919 3.3502343 0.62196141 1018
-0.56881917 3.3389733 0.58916366 1080
-0.19980097 3.3996203 0.56270331 1020
-0.3195453 3.3641965 0.53056294 974
-0.44728211 3.3547344 0.49400231 1020
-0.57277703 3.3594699 0.46332285 1045
-0.19925912 3.4076526 0.43730941 1070
-0.31830552 3.3641498 0.40631256 969
-0.44037676 3.3435922 0.37324056 966
-0.56838417 3.3433118 0.3377969 1006
-0.19701606 3.4012032 0.31192803 1008
-0.31996357 3.3802092 0.27978647 946
-0.44197953 3.3594639 0.24606958 975
-0.57427919 3.3691339 0.20838524 1051
-0.19618943 3.4089956 0.18457712 959
-0.31979558 3.3917029 0.15101071 914
-0.44465441 3.3732798 0.11712189 923
-0.5624736 3.3289437 0.085161425 870
-0.19148727 3.390564 0.059534907 399
-0.31125671 3.3507285 0.029511264 445
-0.39326736 3.1457345 0.028220011 279
-0.49473071 3.0670898 0.0054910649 605
-0.14862107 3.1098685 -0.015951805 377
-0.25838187 3.0691736 -0.04217694 386
-0.32602823 2.8417234 -0.028987162 542
-0.44549835 2.8758512 -0.072941087 770
-0.10519041 2.8236153 -0.070827931 483
-0.21800026 2.8568807 -0.11187419 521
-0.30383423 2.748642 -0.11888291 564
-0.39849377 2.6933732 -0.14181623 427
-0.074479342 2.6321929 -0.13284814 381
-0.17825966 2.6443386 -0.16842997 241
-0.25615451 2.5318894 -0.1694905 256
-0.33101538 2.4287806 -0.17429881 279
-0.17114052 3.4596262 1.6154625 974
-0.2954374 3.4078281 1.5680463 990
-0.42252904 3.3901117 1.5323765 1027
-0.55011898 3.3693488 1.4998624 1145
-0.17136353 3.453279 1.4721247 1000
-0.29199365 3.3972592 1.4254934 945
-0.41431665 3.3608189 1.3875257 1036
-0.54595441 3.3689163 1.361943 1096
-0.16780797 3.4363325 1.3312654 991
-0.28753966 3.3784108 1.2877249 975
-0.41308615 3.3628395 1.2552849 993
-0.54377347 3.3721724 1.229176 1147
-0.16779304 3.4377279 1.1994021 939
-0.28645444 3.3834319 1.1580119 1024
-0.41040814 3.3589106 1.1243998 1052
-0.53490824 3.3504159 1.0946963 1085
-0.16339892 3.4105458 1.0662761 996
-0.28186494 3.3647482 1.0282588 956
-0.41038293 3.3724816 0.99933875 973
-0.53666389 3.3667173 0.96863186 1087
-0.1648808 3.4287786 0.94027793 950
-0.28286189 3.3765681 0.90386701 1010
-0.40692487 3.3628185 0.87190551 1053
-0.53407335 3.3608291 0.84110147 1081
-0.16308004 3.4255695 0.81410134 1056
-0.28073522 3.3741913 0.77875745 1009
-0.4034121 3.3554819 0.74704427 992
-0.53164768 3.3593519 0.71505404 1096
-0.16131471 3.4167552 0.68746489 1044
-0.27887675 3.3701935 0.65414476 1007
-0.40211582 3.3522737 0.62185168 1010
-0.52756774 3.348417 0.58912385 1074
-0.15980807 3.4183848 0.56258309 1005
-0.27874967 3.374506 0.53048021 1002
-0.40587902 3.3626776 0.4939926 981
-0.52743739 3.3534365 0.46388492 1034
-0.15875839 3.4234276 0.43684569 997
-0.27902451 3.3832979 0.40564841 981
-0.39951825 3.3534052 0.37314218 946
-0.52994519 3.3643706 0.33696899 995
-0.15896547 3.4347131 0.30966884 952
-0.28097668 3.4022918 0.27841991 958
-0.39889339 3.3595498 0.24691874 955
-0.53241354 3.3776801 0.20856199 1036
-0.15079719 3.3882461 0.18767266 846
-0.27781418 3.3970985 0.151227 927
-0.4014048 3.3734338 0.11829664 949
-0.50737685 3.2816279 0.093776278 867
-0.13894436 3.3140371 0.072270855 414
-0.27424425 3.3823011 0.025443407 290
-0.38730642 3.3112524 0.00035418011 204
-0.43328673 2.9801517 0.023671238 704
-0.10581558 3.0800874 -0.0092020025 518
-0.2048001 2.9820433 -0.02304507 271
-0.30644828 2.9229498 -0.044952549 588
-0.41180179 2.8914177 -0.074491389 721
-0.087514043 2.9578421 -0.10094675 526
-0.1926339 2.9205422 -0.12593617 296
-0.28187829 2.8128338 -0.13350241 371
-0.3786065 2.7552788 -0.1562832 381
-0.053737864 2.7256107 -0.15716644 381
-0.14162835 2.6253247 -0.16142312 247
-0.21629322 2.4962211 -0.15691637 309
-0.30255383 2.4419143 -0.17606828 298
-0.13141114 3.4870508 1.6219391 938
-0.25392938 3.4167879 1.5685591 981
-0.37978184 3.3930585 1.530759 1038
-0.50897968 3.3804781 1.5000783 1094
-0.1336554 3.4963214 1.4817083 986
-0.24968347 3.4004409 1.424513 964
-0.37134591 3.3607469 1.385444 993
-0.50051939 3.3619649 1.357978 1072
-0.13153459 3.4893653 1.3415346 1043
-0.247329 3.3931122 1.2892962 960
-0.37219098 3.3732708 1.2556314 977
-0.49827981 3.3650608 1.2258608 1112
-0.13069266 3.484262 1.2066869 980
-0.24398962 3.3845387 1.1569921 1000
-0.36666867 3.3547869 1.1223489 995
-0.49536282 3.367156 1.0956787 1089
-0.12859447 3.4729917 1.0742648 1014
-0.24229664 3.3824129 1.0296391 926
-0.36724406 3.3721862 0.99823046 955
-0.49418145 3.3719006 0.96804506 1092
-0.12755209 3.4727373 0.9442209 1003
-0.24299237 3.3933046 0.9047578 997
-0.36467242 3.366358 0.87145495 1030
-0.49280149 3.3708169 0.84106326 1093
-0.12676144 3.4775479 0.81716597 1042
-0.23900217 3.379097 0.77861166 993
-0.36472487 3.3766067 0.74761873 1003
-0.48902082 3.3634725 0.71479219 1157
-0.1269304 3.4836755 0.68925774 1067
-0.24002308 3.3928456 0.65443021 989
-0.36037511 3.3576982 0.62178463 984
-0.48963898 3.3719552 0.58909827 1089
-0.12379692 3.4724109 0.56221831 1034
-0.23732293 3.3813574 0.53044689 967
-0.36265153 3.3612826 0.49422488 991
-0.48738796 3.3682065 0.46366996 1085
-0.12289476 3.4793816 0.43461207 1114
-0.23780052 3.3921242 0.40551001 984
-0.35968244 3.3685956 0.37267208 963
-0.48816562 3.3723619 0.33707428 1011
-0.12100695 3.4747238 0.30685306 1024
-0.23826915 3.4032643 0.2789194 951
-0.35649014 3.3620152 0.2474736 985
-0.48911244 3.3798978 0.2093872 1007
-0.11789764 3.4655099 0.17918548 970
-0.2351757 3.3980541 0.1519452 933
-0.35826382 3.3730352 0.11947235 931
-0.48842376 3.3828371 0.080036633 981
-0.10403936 3.3672595 0.064792491 352
-0.22995049 3.3715451 0.028314827 268
-0.28326267 2.9944944 0.057693496 396
-0.39354837 2.9755158 0.026162529 509
-0.052623808 2.9561124 0.015626853 559
-0.20085588 3.1962283 -0.065550655 242
-0.26174968 2.8850389 -0.035256702 572
-0.36873412 2.8676119 -0.06715598 677
-0.039136678 2.8607702 -0.077392697 480
-0.1461104 2.8581648 -0.10935818 318
-0.24436973 2.8045268 -0.12964138 566
-0.34189641 2.7511516 -0.15302201 464
-0.013065606 2.6683905 -0.14047219 285
-0.11636119 2.6752529 -0.17416361 177
-0.18508615 2.4995408 -0.1561026 444
-0.27255577 2.4491239 -0.17609602 402
-0.089804709 3.5025787 1.6250204 1008
-0.21556799 3.4471223 1.5753565 832
-0.33902997 3.4058957 1.5320412 988
-0.46748155 3.390161 1.5000404 1063
-0.089256585 3.4879057 1.4782255 968
-0.21240562 3.4367297 1.4318163 884
-0.33045655 3.370656 1.3858637 996
-0.46031943 3.3763049 1.359031 1099
-0.08991617 3.5050952 1.3438158 1036
-0.20929958 3.4238067 1.2942778 871
-0.32646185 3.3581173 1.2510074 981
-0.45675093 3.3736525 1.2256411 1115
-0.088488489 3.4941864 1.2075268 986
-0.20433673 3.4036512 1.1590965 933
-0.32765934 3.3743777 1.1241739 1016
-0.45380539 3.3757048 1.0954953 1079
-0.087403461 3.4907932 1.0760313 1029
-0.2035438 3.4074597 1.032048 926
-0.3247627 3.3742697 0.99748063 971
-0.45407665 3.3872199 0.96866554 1101
-0.084939599 3.4777288 0.94418997 999
-0.20309056 3.4115388 0.9058339 1008
-0.32552114 3.3860264 0.87241536 1019
-0.44924372 3.370563 0.84029078 1051
-0.084087402 3.4825284 0.81713498 1051
-0.19999811 3.4022543 0.77953482 1007
-0.32073459 3.3707621 0.74692678 972
-0.44836688 3.3758333 0.71486658 1105
-0.084397748 3.4906442 0.68928558 1083
-0.19692458 3.3893294 0.65419847 1007
-0.32005602 3.3704705 0.62180209 961
-0.44238955 3.3550339 0.58903706 1064
-0.081617534 3.4813299 0.56216013 1039
-0.19668531 3.3936362 0.53031689 973
-0.31956506 3.3593345 0.49445805 1008
-0.44300073 3.3639572 0.46412787 1051
-0.080733508 3.4892781 0.43436521 1080
-0.1951471 3.3915544 0.40584511 990
-0.31975916 3.3842936 0.37214059 971
-0.44480821 3.3730171 0.33768257 1040
-0.079329297 3.4885495 0.30610615 1036
-0.19533817 3.4017305 0.27959746 907
-0.31788909 3.3845038 0.2459625 944
-0.4486692 3.3941822 0.2088099 1036
-0.07664305 3.4822283 0.17776459 954
-0.19317071 3.4024031 0.15216318 916
-0.31969014 3.3964565 0.11728363 986
-0.44431427 3.3806617 0.081730068 1003
-0.050848648 3.261903 0.08178816 312
-0.18487617 3.3524005 0.032478414 318
-0.3026897 3.3096747 0.0033586323 291
-0.3686462 3.0366323 0.016208859 494
-0.036409944 3.1477108 -0.020556306 417
-0.14004152 3.0527179 -0.035154965 531
-0.22772303 2.899415 -0.036942206 488
-0.33498132 2.8822751 -0.068704866 564
-0.00824444 2.9044447 -0.086626045 521
-0.098565459 2.7768104 -0.088334017 428
-0.21478151 2.8377175 -0.13647945 438
-0.30413952 2.7408719 -0.14824021 422
0.020395532 2.6653104 -0.13866697 287
-0.060975984 2.5229197 -0.1295508 378
-0.15816495 2.5260839 -0.16228959 293
-0.24350493 2.4606361 -0.17757435 300
-0.04693687 3.508064 1.6252729 917
-0.17288324 3.4503412 1.5745044 975
-0.29473668 3.3992386 1.5280538 999
-0.4252612 3.3964968 1.4992399 1154
-0.047525346 3.5030384 1.4809071 977
-0.17037 3.4437311 1.4320205 986
-0.29059753 3.3867817 1.3878748 1003
-0.41745299 3.3787081 1.3574674 1067
-0.047110006 3.5115712 1.3442057 1036
-0.16755304 3.4317491 1.2946469 974
-0.2901293 3.3936036 1.2565178 998
-0.41411304 3.3769212 1.2245123 1072
-0.045814857 3.5006588 1.2078449 991
-0.16562457 3.4320724 1.1628454 986
