# .PCD v0.7 - Point Cloud Data file format
VERSION 0.7
FIELDS x y z rgb
SIZE 4 4 4 4
TYPE F F F U
COUNT 1 1 1 1
WIDTH 1090
HEIGHT 1
VIEWPOINT 0 0 0 1 0 0 0
POINTS 1090
DATA ascii
2.8542747 -0.59631753 -0.16019133 1120403456
2.8326569 -0.49233878 -0.17585814 1120403456
2.7413929 -0.37882972 -0.17230879 1120403456
0.30273443 0.0039471984 0.58475918 1120403456
0.30273443 0.0039471984 0.58475918 1120403456
0.30273443 0.0039471984 0.58475918 1120403456
0.30273443 0.0039471984 0.58475918 1120403456
0.30273443 0.0039471984 0.58475918 1120403456
0.30273443 0.0039471984 0.58475918 1120403456
0.30273443 0.0039471984 0.58475918 1120403456
0.30273443 0.0039471984 0.58475918 1120403456
0.30273443 0.0039471984 0.58475918 1120403456
0.30273443 0.0039471984 0.58475918 1120403456
0.30273443 0.0039471984 0.58475918 1120403456
0.30273443 0.0039471984 0.58475918 1120403456
0.30273443 0.0039471984 0.58475918 1120403456
74.034935 -17.833164 12.998075 1120403456
74.553932 -15.091744 12.237652 1120403456
16.87727 -2.7524555 3.0079145 1120403456
16.064661 -4.4264464 2.8228304 1120403456
16.327019 -3.880702 2.6719296 1120403456
16.612625 -3.3273525 2.5309322 1120403456
16.895435 -2.767868 2.3880684 1120403456
16.070969 -4.4346638 2.2154257 1120403456
16.347937 -3.8923912 2.0680718 1120403456
16.597279 -3.3325057 1.9183933 1120403456
16.933243 -2.780935 1.774668 1120403456
16.070114 -4.4426293 1.6191487 1120403456
16.366047 -3.9066758 1.4669425 1120403456
16.629698 -3.3501124 1.3172539 1120403456
16.911785 -2.7885513 1.1604093 1120403456
16.09865 -4.4550381 1.0208333 1120403456
16.362577 -3.9130473 0.86535919 1120403456
16.662737 -3.3613553 0.70875502 1120403456
16.929018 -2.7993929 0.54726446 1120403456
16.122995 -4.4719353 0.42577025 1120403456
16.437346 -3.9370379 0.26599771 1120403456
16.304646 -3.2815938 0.097161219 1120403456
13.908384 -2.2965899 0.053366244 1120403456
12.217838 -3.3746448 0.013921844 1120403456
10.595658 -2.5149863 -0.0038751792 1120403456
9.4895554 -1.8951607 -0.027243761 1120403456
8.7475805 -1.4251244 -0.058092847 1120403456
8.0114155 -2.1857686 -0.077876613 1120403456
7.4208002 -1.7414894 -0.090664938 1120403456
6.8712072 -1.3581996 -0.099184506 1120403456
6.4247336 -1.0339837 -0.1090275 1120403456
5.842495 -1.5736105 -0.10369855 1120403456
5.5195117 -1.2793636 -0.10967806 1120403456
5.3021216 -1.0338122 -0.12461574 1120403456
4.890564 -0.7760793 -0.10835468 1120403456
4.6061563 -1.2246864 -0.1166111 1120403456
4.4441118 -1.0165374 -0.1255808 1120403456
4.2239423 -0.81172621 -0.12185147 1120403456
4.0202842 -0.62822878 -0.11885901 1120403456
3.8112171 -1.0006349 -0.12579864 1120403456
3.7648158 -0.85116994 -0.14487867 1120403456
3.580189 -0.67830133 -0.13399597 1120403456
3.4967265 -0.53907073 -0.14502908 1120403456
3.2997117 -0.8568337 -0.14324574 1120403456
3.2045493 -0.71486235 -0.14374207 1120403456
3.0930638 -0.57884359 -0.13904952 1120403456
3.0024006 -0.45492649 -0.14127648 1120403456
2.868773 -0.7366569 -0.14620987 1120403456
2.8280492 -0.62299097 -0.15467346 1120403456
2.8273194 -0.52358711 -0.17609651 1120403456
2.7478275 -0.410689 -0.1757897 1120403456
0.30273443 0.0039471984 0.58475918 1120403456
0.30273443 0.0039471984 0.58475918 1120403456
0.30273443 0.0039471984 0.58475918 1120403456
0.30273443 0.0039471984 0.58475918 1120403456
0.30273443 0.0039471984 0.58475918 1120403456
0.30273443 0.0039471984 0.58475918 1120403456
0.30273443 0.0039471984 0.58475918 1120403456
0.30273443 0.0039471984 0.58475918 1120403456
0.30273443 0.0039471984 0.58475918 1120403456
0.30273443 0.0039471984 0.58475918 1120403456
0.30273443 0.0039471984 0.58475918 1120403456
74.732971 -13.233938 14.337275 1120403456
0.30273443 0.0039471984 0.58475918 1120403456
0.30273443 0.0039471984 0.58475918 1120403456
74.383316 -16.005489 12.242182 1120403456
16.77301 -2.9431233 2.9980426 1120403456
15.97773 -4.6101718 2.8187153 1120403456
16.239683 -4.0671077 2.6672308 1120403456
16.533623 -3.5191278 2.5268142 1120403456
16.811234 -2.9623792 2.3830025 1120403456
15.991442 -4.6206994 2.2133043 1120403456
16.251627 -4.0768113 2.0640125 1120403456
16.548285 -3.5306501 1.9181288 1120403456
16.795712 -2.9663491 1.767611 1120403456
16 -4.6314826 1.6185592 1120403456
16.258808 -4.0885649 1.4640712 1120403456
16.540453 -3.539947 1.3154421 1120403456
16.853643 -2.9880352 1.159889 1120403456
16.011106 -4.639164 1.0203129 1120403456
16.294901 -4.1050854 0.86536354 1120403456
16.542053 -3.5447769 0.70845699 1120403456
16.823503 -2.9905491 0.54768777 1120403456
16.021816 -4.6523962 0.42658168 1120403456
16.327738 -4.119307 0.26751524 1120403456
16.391058 -3.5056481 0.093545526 1120403456
13.912559 -2.4694819 0.05227685 1120403456
12.186019 -3.523766 0.013685675 1120403456
10.240079 -2.5576477 0.014908658 1120403456
9.6283312 -2.043525 -0.037945002 1120403456
8.7971096 -1.5409963 -0.063120469 1120403456
7.9190097 -2.2609224 -0.072099462 1120403456
7.3988495 -1.8287456 -0.090519369 1120403456
6.8870344 -1.4460149 -0.10251254 1120403456
6.4232726 -1.1112087 -0.11026135 1120403456
5.8341413 -1.6449158 -0.10499649 1120403456
5.4937739 -1.3408372 -0.10828938 1120403456
5.3112621 -1.1000285 -0.12768896 1120403456
4.9497333 -0.84498012 -0.11873896 1120403456
4.5576291 -1.2675433 -0.11109486 1120403456
4.2546439 -1.0214883 -0.095107928 1120403456
4.2174873 -0.86067379 -0.12247461 1120403456
4.0489969 -0.68055582 -0.12576868 1120403456
3.8211954 -1.0504167 -0.13030477 1120403456
3.7426875 -0.89067352 -0.14240234 1120403456
3.6269457 -0.7307483 -0.14611012 1120403456
3.5003827 -0.58019519 -0.14739469 1120403456
3.2973204 -0.89611065 -0.14522323 1120403456
3.2208979 -0.75707936 -0.15007421 1120403456
3.1159868 -0.61979651 -0.14687327 1120403456
3.0422125 -0.49639893 -0.15353361 1120403456
2.8844261 -0.77566063 -0.1532779 1120403456
2.7931807 -0.64692211 -0.14669454 1120403456
2.8094234 -0.55207944 -0.17265496 1120403456
2.7124615 -0.43522096 -0.1663686 1120403456
0.30273443 0.0039471984 0.58475918 1120403456
0.30273443 0.0039471984 0.58475918 1120403456
0.30273443 0.0039471984 0.58475918 1120403456
0.30273443 0.0039471984 0.58475918 1120403456
0.30273443 0.0039471984 0.58475918 1120403456
0.30273443 0.0039471984 0.58475918 1120403456
0.30273443 0.0039471984 0.58475918 1120403456
0.30273443 0.0039471984 0.58475918 1120403456
0.30273443 0.0039471984 0.58475918 1120403456
0.30273443 0.0039471984 0.58475918 1120403456
0.30273443 0.0039471984 0.58475918 1120403456
74.617996 -14.155634 14.348352 1120403456
0.30273443 0.0039471984 0.58475918 1120403456
0.30273443 0.0039471984 0.58475918 1120403456
74.259254 -16.93055 12.255888 1120403456
16.666574 -3.13165 2.9881794 1120403456
15.894346 -4.7941809 2.8154225 1120403456
16.171267 -4.2576175 2.6653049 1120403456
16.443663 -3.7074656 2.5216603 1120403456
16.703276 -3.1511102 2.3756013 1120403456
15.891657 -4.7998857 2.2093096 1120403456
16.167639 -4.263339 2.061305 1120403456
16.458998 -3.7193661 1.9147568 1120403456
16.72765 -3.1625943 1.7657031 1120403456
15.918089 -4.8163419 1.6173491 1120403456
16.163031 -4.2720523 1.4619548 1120403456
16.45875 -3.7303476 1.314079 1120403456
16.72835 -3.1739841 1.1571229 1120403456
15.909964 -4.818274 1.0194827 1120403456
16.186321 -4.2856259 0.86469769 1120403456
16.459288 -3.7349887 0.70847309 1120403456
16.726612 -3.1816335 0.54809606 1120403456
15.908091 -4.827796 0.42750773 1120403456
16.229607 -4.3031359 0.26877326 1120403456
16.312695 -3.694963 0.094892368 1120403456
14.234305 -2.7050014 0.038663551 1120403456
12.098904 -3.6560369 0.016034069 1120403456
10.392935 -2.7295599 0.0044778455 1120403456
9.6491604 -2.16869 -0.040891141 1120403456
8.7784929 -1.6453459 -0.063052624 1120403456
7.9448943 -2.3711109 -0.076615438 1120403456
7.3527651 -1.9094658 -0.088167399 1120403456
6.8135238 -1.51387 -0.096607938 1120403456
6.4422965 -1.1927373 -0.11393277 1120403456
5.8248711 -1.716253 -0.10629012 1120403456
5.5103774 -1.4135947 -0.11266452 1120403456
5.147831 -1.1265628 -0.10626988 1120403456
4.9049935 -0.89534259 -0.11350583 1120403456
4.5520825 -1.3229399 -0.11269729 1120403456
4.3949876 -1.1117182 -0.12146626 1120403456
4.2612467 -0.92146754 -0.13230133 1120403456
4.0644393 -0.73123097 -0.1302904 1120403456
3.7864516 -1.0868092 -0.12582715 1120403456
3.6983767 -0.9238236 -0.13531469 1120403456
3.584363 -0.76373327 -0.13870093 1120403456
3.5035102 -0.62149119 -0.14975774 1120403456
3.3102102 -0.94041824 -0.15106262 1120403456
3.2141542 -0.79364467 -0.15072206 1120403456
3.0901961 -0.6501075 -0.14214413 1120403456
3.0282812 -0.52853835 -0.15143751 1120403456
2.8663898 -0.8047142 -0.15084118 1120403456
2.783155 -0.6769675 -0.14609465 1120403456
2.7706678 -0.57538915 -0.16298795 1120403456
2.6984496 -0.46315515 -0.1636896 1120403456
0.30273443 0.0039471984 0.58475918 1120403456
0.30273443 0.0039471984 0.58475918 1120403456
0.30273443 0.0039471984 0.58475918 1120403456
0.30273443 0.0039471984 0.58475918 1120403456
0.30273443 0.0039471984 0.58475918 1120403456
0.30273443 0.0039471984 0.58475918 1120403456
0.30273443 0.0039471984 0.58475918 1120403456
0.30273443 0.0039471984 0.58475918 1120403456
0.30273443 0.0039471984 0.58475918 1120403456
0.30273443 0.0039471984 0.58475918 1120403456
0.30273443 0.0039471984 0.58475918 1120403456
74.394211 -15.05671 14.341403 1120403456
0.30273443 0.0039471984 0.58475918 1120403456
0.30273443 0.0039471984 0.58475918 1120403456
74.204315 -17.874496 12.28242 1120403456
16.59873 -3.3263359 2.9843228 1120403456
15.7824 -4.9683561 2.8083451 1120403456
16.054743 -4.4341483 2.6573586 1120403456
16.358284 -3.8957686 2.5173292 1120403456
16.606821 -3.3404384 2.3697019 1120403456
15.806896 -4.9828053 2.2071078 1120403456
16.066143 -4.4440918 2.0571744 1120403456
16.35494 -3.9033594 1.9103546 1120403456
16.599609 -3.3457694 1.7596496 1120403456
15.80551 -4.9907098 1.6142561 1120403456
16.073805 -4.4562526 1.4603279 1120403456
16.346678 -3.9124084 1.3114511 1120403456
16.63134 -3.3635683 1.1554255 1120403456
15.835339 -5.0048056 1.01946 1120403456
16.083422 -4.4663033 0.86417663 1120403456
16.348076 -3.9172959 0.70829701 1120403456
16.64809 -3.3750463 0.54846811 1120403456
15.834305 -5.014637 0.42801934 1120403456
16.132271 -4.4859986 0.26998287 1120403456
16.198128 -3.8745918 0.097291306 1120403456
14.155006 -2.866462 0.040675506 1120403456
12.142441 -3.829474 0.01199797 1120403456
10.358634 -2.8532083 0.0046991576 1120403456
9.6450586 -2.288965 -0.042267933 1120403456
8.7693367 -1.7516985 -0.063801616 1120403456
7.9265532 -2.4684393 -0.077418283 1120403456
7.3076873 -1.9898772 -0.085994959 1120403456
6.8040714 -1.5960691 -0.097493082 1120403456
6.4281259 -1.2682302 -0.11393602 1120403456
5.7920179 -1.7802451 -0.10473271 1120403456
5.5259724 -1.4869599 -0.1170346 1120403456
5.2480454 -1.2141645 -0.12254304 1120403456
5.0001321 -0.97396672 -0.12962411 1120403456
4.5589685 -1.3826768 -0.11646296 1120403456
4.4502287 -1.1816852 -0.13336395 1120403456
4.239079 -0.96742046 -0.13031241 1120403456
4.0541754 -0.77717817 -0.13004093 1120403456
3.8278582 -1.1475005 -0.13701397 1120403456
3.7074606 -0.97140038 -0.1396483 1120403456
3.57375 -0.80375314 -0.1384261 1120403456
3.4545293 -0.65221453 -0.14025435 1120403456
3.3298647 -0.98760223 -0.15871716 1120403456
3.2069533 -0.83015883 -0.15136778 1120403456
3.1374733 -0.69805276 -0.15660611 1120403456
2.9846389 -0.55430484 -0.14139664 1120403456
2.8407016 -0.83103108 -0.14629176 1120403456
2.7995756 -0.71457934 -0.15341879 1120403456
2.7419636 -0.60036862 -0.15643233 1120403456
2.6700754 -0.48789465 -0.15661201 1120403456
0.30273443 0.0039471984 0.58475918 1120403456
0.30273443 0.0039471984 0.58475918 1120403456
0.30273443 0.0039471984 0.58475918 1120403456
0.30273443 0.0039471984 0.58475918 1120403456
0.30273443 0.0039471984 0.58475918 1120403456
0.30273443 0.0039471984 0.58475918 1120403456
0.30273443 0.0039471984 0.58475918 1120403456
0.30273443 0.0039471984 0.58475918 1120403456
0.30273443 0.0039471984 0.58475918 1120403456
0.30273443 0.0039471984 0.58475918 1120403456
0.30273443 0.0039471984 0.58475918 1120403456
74.347992 -15.995158 14.369593 1120403456
0.30273443 0.0039471984 0.58475918 1120403456
0.30273443 0.0039471984 0.58475918 1120403456
0.30273443 0.0039471984 0.58475918 1120403456
16.480211 -3.509326 2.9733357 1120403456
15.695778 -5.1496325 2.8052058 1120403456
15.975294 -4.6199756 2.654572 1120403456
16.254364 -4.0783505 2.5110321 1120403456
16.516941 -3.5297832 2.3647718 1120403456
15.730375 -5.16785 2.2060061 1120403456
15.98744 -4.6303387 2.0553811 1120403456
16.259432 -4.0880857 1.9068413 1120403456
16.523163 -3.5379868 1.7574794 1120403456
15.72507 -5.1744785 1.6134431 1120403456
16.004475 -4.6454306 1.4599373 1120403456
16.249027 -4.0965133 1.3095791 1120403456
16.552662 -3.5557437 1.1544564 1120403456
15.718691 -5.1768589 1.0183278 1120403456
16.008205 -4.6539154 0.86419296 1120403456
16.281319 -4.1094055 0.70848942 1120403456
16.545813 -3.5622926 0.54889762 1120403456
15.727958 -5.1901822 0.42884746 1120403456
16.039562 -4.6691136 0.27106777 1120403456
16.171606 -4.0751104 0.096930757 1120403456
14.231948 -3.0611763 0.036472321 1120403456
12.138051 -3.9891977 0.010180028 1120403456
10.345789 -2.983258 0.0035982896 1120403456
9.6287813 -2.406718 -0.04292208 1120403456
8.7461843 -1.8552861 -0.063572183 1120403456
7.8635411 -2.5509989 -0.074428827 1120403456
7.3141894 -2.0851097 -0.088861421 1120403456
6.7743216 -1.6732728 -0.096346229 1120403456
6.4237032 -1.345911 -0.11515574 1120403456
5.7593689 -1.8440082 -0.10329065 1120403456
5.5082378 -1.5512691 -0.11704376 1120403456
5.2442336 -1.2777832 -0.124092 1120403456
5.0331745 -1.0416107 -0.13645874 1120403456
4.5987039 -1.4542131 -0.12579508 1120403456
4.4136353 -1.2260296 -0.12949289 1120403456
4.1630054 -0.99909949 -0.11859581 1120403456
4.05583 -0.82574236 -0.13217251 1120403456
3.8134673 -1.1907136 -0.13692531 1120403456
3.7065008 -1.0165259 -0.14197497 1120403456
3.6345668 -0.86232626 -0.15409707 1120403456
3.4872048 -0.6999377 -0.149643 1120403456
3.2971966 -1.0177989 -0.15364091 1120403456
3.206738 -0.86885369 -0.15390477 1120403456
3.1596007 -0.74089861 -0.16466692 1120403456
3.0040181 -0.59305608 -0.14852148 1120403456
2.8393929 -0.86528158 -0.14886652 1120403456
2.7758372 -0.74076998 -0.14898917 1120403456
2.7649958 -0.63828719 -0.16571707 1120403456
2.6647992 -0.51715696 -0.15686184 1120403456
0.30273443 0.0039471984 0.58475918 1120403456
0.30273443 0.0039471984 0.58475918 1120403456
0.30273443 0.0039471984 0.58475918 1120403456
0.30273443 0.0039471984 0.58475918 1120403456
0.30273443 0.0039471984 0.58475918 1120403456
0.30273443 0.0039471984 0.58475918 1120403456
0.30273443 0.0039471984 0.58475918 1120403456
0.30273443 0.0039471984 0.58475918 1120403456
0.30273443 0.0039471984 0.58475918 1120403456
0.30273443 0.0039471984 0.58475918 1120403456
0.30273443 0.0039471984 0.58475918 1120403456
0.30273443 0.0039471984 0.58475918 1120403456
0.30273443 0.0039471984 0.58475918 1120403456
0.30273443 0.0039471984 0.58475918 1120403456
0.30273443 0.0039471984 0.58475918 1120403456
16.39632 -3.6983461 2.9677846 1120403456
15.620137 -5.3340979 2.8039737 1120403456
15.885128 -4.8018909 2.6506643 1120403456
16.150305 -4.25949 2.5049765 1120403456
16.424873 -3.7174263 2.3598511 1120403456
15.635674 -5.3461952 2.2032285 1120403456
15.904638 -4.8147354 2.0534184 1120403456
16.18202 -4.2765083 1.9050174 1120403456
16.442511 -3.7283845 1.7551785 1120403456
15.66695 -5.3655872 1.6142811 1120403456
15.913799 -4.827673 1.4584894 1120403456
16.152178 -4.2795949 1.3078483 1120403456
16.429867 -3.7367873 1.1520246 1120403456
15.649235 -5.3639684 1.0185906 1120403456
15.918344 -4.8365068 0.8639971 1120403456
16.163034 -4.2871475 0.7083087 1120403456
16.425829 -3.7439165 0.54937035 1120403456
15.648902 -5.3741298 0.42938772 1120403456
15.957161 -4.8544841 0.27191371 1120403456
16.07597 -4.2575712 0.098634183 1120403456
14.115434 -3.2137709 0.039808601 1120403456
12.000505 -4.1033888 0.014756309 1120403456
10.319819 -3.1098661 0.0031696875 1120403456
9.6418362 -2.5327873 -0.045649394 1120403456
8.5955133 -1.9291406 -0.053618118 1120403456
7.8410249 -2.6469321 -0.075056627 1120403456
7.2671132 -2.1645191 -0.086680055 1120403456
6.8079705 -1.7675004 -0.10198475 1120403456
6.405714 -1.4207363 -0.11492831 1120403456
5.7465858 -1.9144995 -0.10445382 1120403456
5.4887648 -1.6150713 -0.11692122 1120403456
5.2290931 -1.3386273 -0.12412442 1120403456
4.6347528 -1.0094991 -0.077476978 1120403456
4.5721059 -1.5039008 -0.12429145 1120403456
4.4076509 -1.2793682 -0.13103774 1120403456
4.1798615 -1.0544751 -0.12389667 1120403456
4.0549421 -0.87401688 -0.13393438 1120403456
3.7994721 -1.2340741 -0.13702524 1120403456
3.6497838 -1.0444955 -0.1324784 1120403456
3.6038828 -0.89777982 -0.14961982 1120403456
3.4792817 -0.73922729 -0.149802 1120403456
3.2523165 -1.0431087 -0.14560947 1120403456
3.2245491 -0.91348994 -0.16117236 1120403456
3.134357 -0.77159107 -0.16042367 1120403456
3.0162582 -0.63082612 -0.15385011 1120403456
2.8458021 -0.90254021 -0.1538139 1120403456
2.7848685 -0.77687776 -0.15439568 1120403456
2.6847782 -0.64872742 -0.14360151 1120403456
2.694541 -0.55462635 -0.16824831 1120403456
0.30273443 0.0039471984 0.58475918 1120403456
0.30273443 0.0039471984 0.58475918 1120403456
0.30273443 0.0039471984 0.58475918 1120403456
0.30273443 0.0039471984 0.58475918 1120403456
0.30273443 0.0039471984 0.58475918 1120403456
0.30273443 0.0039471984 0.58475918 1120403456
0.30273443 0.0039471984 0.58475918 1120403456
0.30273443 0.0039471984 0.58475918 1120403456
0.30273443 0.0039471984 0.58475918 1120403456
0.30273443 0.0039471984 0.58475918 1120403456
0.30273443 0.0039471984 0.58475918 1120403456
0.30273443 0.0039471984 0.58475918 1120403456
0.30273443 0.0039471984 0.58475918 1120403456
0.30273443 0.0039471984 0.58475918 1120403456
0.30273443 0.0039471984 0.58475918 1120403456
16.316963 -3.8874755 2.963243 1120403456
15.511548 -5.5063462 2.7982774 1120403456
15.780584 -4.9783406 2.6451316 1120403456
16.058546 -4.4427385 2.5006731 1120403456
16.331615 -3.9035821 2.3550463 1120403456
15.573532 -5.535552 2.2041297 1120403456
15.813042 -4.9956613 2.0508378 1120403456
16.053473 -4.4498143 1.8991212 1120403456
16.348005 -3.9144969 1.7520411 1120403456
15.568942 -5.5424185 1.6126037 1120403456
15.817219 -5.0071654 1.4568369 1120403456
16.072464 -4.4663696 1.3070067 1120403456
16.365274 -3.9300947 1.1517254 1120403456
15.554959 -5.5419564 1.0182228 1120403456
15.841595 -5.022521 0.86408412 1120403456
16.102448 -4.4795337 0.70860344 1120403456
16.366968 -3.9386301 0.54971367 1120403456
15.551686 -5.5510998 0.43009979 1120403456
15.862123 -5.0351477 0.27297887 1120403456
15.929205 -4.4244032 0.10186219 1120403456
14.085585 -3.3856859 0.039659172 1120403456
11.475333 -4.0737052 0.038247675 1120403456
10.747188 -3.3838496 -0.023756845 1120403456
9.5457048 -2.6289206 -0.041090295 1120403456
8.5150099 -2.0169749 -0.049119338 1120403456
7.777041 -2.7279861 -0.072141334 1120403456
7.2513466 -2.2535493 -0.087610736 1120403456
6.7752233 -1.8442307 -0.10072708 1120403456
6.3096132 -1.4763007 -0.10582177 1120403456
5.7235703 -1.98154 -0.10442734 1120403456
5.4675679 -1.6783226 -0.11666702 1120403456
5.2217746 -1.4017417 -0.12539083 1120403456
4.9379196 -1.1406336 -0.12582329 1120403456
4.564414 -1.5603044 -0.12603378 1120403456
4.4028516 -1.3333564 -0.13290763 1120403456
4.1864672 -1.1077056 -0.12745732 1120403456
3.9971254 -0.90848732 -0.12487734 1120403456
3.7619114 -1.2687981 -0.13234837 1120403456
3.6701958 -1.0964868 -0.13960843 1120403456
3.6010325 -0.9406867 -0.1514352 1120403456
3.481292 -0.78100145 -0.15237486 1120403456
3.2694004 -1.0903895 -0.15302876 1120403456
3.1936853 -0.94296765 -0.15613174 1120403456
3.161896 -0.81702363 -0.17020088 1120403456
3.0185912 -0.66666853 -0.1566143 1120403456
2.8344908 -0.9337219 -0.15374556 1120403456
2.790642 -0.81241953 -0.15897995 1120403456
2.683969 -0.6800698 -0.14581154 1120403456
2.669873 -0.57963026 -0.1626322 1120403456
0.30273443 0.0039471984 0.58475918 1120403456
0.30273443 0.0039471984 0.58475918 1120403456
0.30273443 0.0039471984 0.58475918 1120403456
0.30273443 0.0039471984 0.58475918 1120403456
0.30273443 0.0039471984 0.58475918 1120403456
0.30273443 0.0039471984 0.58475918 1120403456
0.30273443 0.0039471984 0.58475918 1120403456
0.30273443 0.0039471984 0.58475918 1120403456
0.30273443 0.0039471984 0.58475918 1120403456
0.30273443 0.0039471984 0.58475918 1120403456
0.30273443 0.0039471984 0.58475918 1120403456
0.30273443 0.0039471984 0.58475918 1120403456
0.30273443 0.0039471984 0.58475918 1120403456
0.30273443 0.0039471984 0.58475918 1120403456
0.30273443 0.0039471984 0.58475918 1120403456
16.231558 -4.0742335 2.9581397 1120403456
15.439063 -5.691041 2.7981491 1120403456
15.683469 -5.1561069 2.6408646 1120403456
15.979923 -4.6288834 2.4982386 1120403456
16.24489 -4.0902362 2.3512108 1120403456
15.466218 -5.7080531 2.2004776 1120403456
15.726911 -5.1776047 2.0489833 1120403456
15.973732 -4.635613 1.8974758 1120403456
16.240742 -4.0961213 1.7481372 1120403456
15.484785 -5.7236433 1.6120092 1120403456
15.70534 -5.1805568 1.4544452 1120403456
15.994387 -4.6529703 1.3063512 1120403456
16.259657 -4.1123967 1.1500652 1120403456
15.477336 -5.7255015 1.0183985 1120403456
15.734213 -5.1977992 0.86366731 1120403456
15.995432 -4.6579819 0.70856094 1120403456
16.267035 -4.1224527 0.55015153 1120403456
15.479564 -5.7367554 0.430545 1120403456
15.75175 -5.2097373 0.27431953 1120403456
15.87369 -4.6158566 0.10221623 1120403456
14.228683 -3.6026993 0.032577157 1120403456
11.80558 -4.3549562 0.019835817 1120403456
10.570512 -3.4663997 -0.015641375 1120403456
9.5672121 -2.7584357 -0.044582888 1120403456
8.5446177 -2.1318948 -0.05321008 1120403456
7.7960677 -2.8396938 -0.076624289 1120403456
7.2674556 -2.353694 -0.091742665 1120403456
6.718698 -1.9135864 -0.097034425 1120403456
6.3583384 -1.5674157 -0.1134627 1120403456
5.7201481 -2.0560687 -0.10700439 1120403456
5.4146075 -1.7307801 -0.1121839 1120403456
5.1832814 -1.4557967 -0.12225433 1120403456
4.9570341 -1.2061796 -0.13087967 1120403456
4.5772152 -1.6248374 -0.13132983 1120403456
4.3385024 -1.3674254 -0.12443412 1120403456
4.2206507 -1.169735 -0.13622256 1120403456
3.9285696 -0.93895006 -0.1138033 1120403456
3.7817996 -1.3248522 -0.13970011 1120403456
3.7139452 -1.1573451 -0.15194225 1120403456
3.5554793 -0.97102654 -0.14380781 1120403456
3.4478199 -0.81385243 -0.14681885 1120403456
3.235744 -1.1190939 -0.14794859 1120403456
3.1708171 -0.97465014 -0.15321958 1120403456
3.1543956 -0.85292852 -0.1708734 1120403456
3.0213878 -0.70290732 -0.15963237 1120403456
2.8155949 -0.96199346 -0.15156493 1120403456
2.7676973 -0.83857524 -0.15509221 1120403456
2.6928527 -0.7145282 -0.15113059 1120403456
2.665314 -0.60939813 -0.16346283 1120403456
0.30273443 0.0039471984 0.58475918 1120403456
0.30273443 0.0039471984 0.58475918 1120403456
0.30273443 0.0039471984 0.58475918 1120403456
0.30273443 0.0039471984 0.58475918 1120403456
0.30273443 0.0039471984 0.58475918 1120403456
0.30273443 0.0039471984 0.58475918 1120403456
0.30273443 0.0039471984 0.58475918 1120403456
0.30273443 0.0039471984 0.58475918 1120403456
0.30273443 0.0039471984 0.58475918 1120403456
0.30273443 0.0039471984 0.58475918 1120403456
0.30273443 0.0039471984 0.58475918 1120403456
0.30273443 0.0039471984 0.58475918 1120403456
0.30273443 0.0039471984 0.58475918 1120403456
0.30273443 0.0039471984 0.58475918 1120403456
0.30273443 0.0039471984 0.58475918 1120403456
16.115309 -4.2517667 2.9487593 1120403456
15.346797 -5.8679423 2.7954535 1120403456
15.615231 -5.3430338 2.6407564 1120403456
15.898155 -4.8134761 2.4956977 1120403456
16.15888 -4.2761297 2.3477056 1120403456
15.381998 -5.888536 2.1995134 1120403456
15.639593 -5.3585162 2.0472281 1120403456
15.902279 -4.8233676 1.8967212 1120403456
16.165148 -4.2848172 1.7467109 1120403456
15.408702 -5.9076385 1.6121193 1120403456
15.675424 -5.3813434 1.4568195 1120403456
15.901703 -4.8344817 1.3051324 1120403456
16.161638 -4.2953157 1.1487566 1120403456
15.36865 -5.8966765 1.0177548 1120403456
15.631475 -5.373518 0.86337882 1120403456
15.930357 -4.8481188 0.70887578 1120403456
16.148609 -4.2999625 0.55063361 1120403456
15.40239 -5.9203806 0.43102887 1120403456
15.654535 -5.3876791 0.27536419 1120403456
15.804373 -4.803061 0.10293703 1120403456
14.284621 -3.8009005 0.028847741 1120403456
11.026052 -4.2107902 0.055923037 1120403456
10.568602 -3.6067495 -0.017808972 1120403456
9.58883 -2.8894663 -0.048196465 1120403456
8.5312614 -2.2365785 -0.054080695 1120403456
7.741138 -2.9238062 -0.074686438 1120403456
7.2380037 -2.4390221 -0.091562703 1120403456
6.7060833 -1.9957736 -0.098098554 1120403456
6.38271 -1.6536729 -0.11843508 1120403456
5.7046261 -2.1264403 -0.10815471 1120403456
5.4032259 -1.7970517 -0.11345978 1120403456
5.1848583 -1.5218232 -0.12502576 1120403456
4.952333 -1.2661116 -0.1323994 1120403456
4.5578284 -1.677573 -0.13136353 1120403456
4.2990537 -1.4089961 -0.12039107 1120403456
4.2397919 -1.2283571 -0.14237911 1120403456
3.9499204 -0.99248135 -0.1201409 1120403456
3.7670605 -1.3682096 -0.13998334 1120403456
3.6994419 -1.1991603 -0.15185373 1120403456
3.5647345 -1.017632 -0.14855549 1120403456
3.4271994 -0.84959984 -0.14433618 1120403456
3.2117898 -1.1510906 -0.1453664 1120403456
3.1503558 -1.0068893 -0.15101579 1120403456
3.1140766 -0.87861121 -0.16293553 1120403456
3.0358253 -0.74262655 -0.1659779 1120403456
2.7972844 -0.9902997 -0.14964676 1120403456
2.7716789 -0.8739599 -0.15939903 1120403456
2.6847751 -0.74413395 -0.15135686 1120403456
2.6548464 -0.63763273 -0.16253337 1120403456
0.30273443 0.0039471984 0.58475918 1120403456
0.30273443 0.0039471984 0.58475918 1120403456
0.30273443 0.0039471984 0.58475918 1120403456
0.30273443 0.0039471984 0.58475918 1120403456
0.30273443 0.0039471984 0.58475918 1120403456
0.30273443 0.0039471984 0.58475918 1120403456
0.30273443 0.0039471984 0.58475918 1120403456
0.30273443 0.0039471984 0.58475918 1120403456
0.30273443 0.0039471984 0.58475918 1120403456
0.30273443 0.0039471984 0.58475918 1120403456
0.30273443 0.0039471984 0.58475918 1120403456
0.30273443 0.0039471984 0.58475918 1120403456
0.30273443 0.0039471984 0.58475918 1120403456
0.30273443 0.0039471984 0.58475918 1120403456
0.30273443 0.0039471984 0.58475918 1120403456
16.038071 -4.4386296 2.9455318 1120403456
15.271759 -6.0512419 2.7956159 1120403456
15.508354 -5.515862 2.6357529 1120403456
15.801933 -4.9927998 2.4916546 1120403456
16.05158 -4.4551144 2.3420744 1120403456
15.304855 -6.0715499 2.1995513 1120403456
15.553904 -5.5394278 2.0458407 1120403456
15.818146 -5.0066986 1.8950953 1120403456
16.053738 -4.4627533 1.7428248 1120403456
15.285074 -6.0722513 1.6091411 1120403456
15.576274 -5.5579147 1.4554086 1120403456
15.816439 -5.0174975 1.3043637 1120403456
16.064423 -4.4772716 1.14756 1120403456
15.301588 -6.0837183 1.0183778 1120403456
15.557755 -5.5588031 0.86366552 1120403456
15.809708 -5.0201035 0.70877492 1120403456
16.091713 -4.4932694 0.55098796 1120403456
15.293354 -6.0909262 0.43182504 1120403456
15.563739 -5.5671082 0.27624676 1120403456
15.700472 -4.9787979 0.10467611 1120403456
14.159046 -3.9500132 0.032258913 1120403456
11.672946 -4.626956 0.021591501 1120403456
10.460692 -3.7095199 -0.013833372 1120403456
9.5431376 -3.0001535 -0.047321796 1120403456
8.6047935 -2.3664422 -0.06181559 1120403456
7.7351069 -3.0273242 -0.077182785 1120403456
7.2075062 -2.523983 -0.091378018 1120403456
6.7595773 -2.0998211 -0.10634622 1120403456
6.2950258 -1.7090771 -0.11053984 1120403456
5.6256871 -2.1711993 -0.10124546 1120403456
5.413332 -1.8715057 -0.1178035 1120403456
5.1346941 -1.5715275 -0.12037189 1120403456
4.8812504 -1.3073196 -0.12376216 1120403456
4.54602 -1.7334471 -0.13278577 1120403456
4.2814178 -1.4579709 -0.12028433 1120403456
4.2131433 -1.2729514 -0.14020047 1120403456
4.0687847 -1.0748317 -0.14553361 1120403456
3.7590466 -1.414387 -0.14179127 1120403456
3.6844263 -1.2407949 -0.1517629 1120403456
3.5417333 -1.0542865 -0.14616887 1120403456
3.46245 -0.90108228 -0.15502696 1120403456
3.1892951 -1.1834102 -0.14323711 1120403456
3.1669116 -1.0525599 -0.15850937 1120403456
3.1002758 -0.91218209 -0.16212907 1120403456
3.0469062 -0.78200793 -0.17155212 1120403456
2.8169968 -1.0341312 -0.15906934 1120403456
2.7408721 -0.89689946 -0.15332323 1120403456
2.6690392 -0.77126086 -0.14931928 1120403456
2.615546 -0.65755224 -0.15251832 1120403456
0.30273443 0.0039471984 0.58475918 1120403456
0.30273443 0.0039471984 0.58475918 1120403456
0.30273443 0.0039471984 0.58475918 1120403456
0.30273443 0.0039471984 0.58475918 1120403456
0.30273443 0.0039471984 0.58475918 1120403456
0.30273443 0.0039471984 0.58475918 1120403456
0.30273443 0.0039471984 0.58475918 1120403456
0.30273443 0.0039471984 0.58475918 1120403456
0.30273443 0.0039471984 0.58475918 1120403456
0.30273443 0.0039471984 0.58475918 1120403456
0.30273443 0.0039471984 0.58475918 1120403456
0.30273443 0.0039471984 0.58475918 1120403456
0.30273443 0.0039471984 0.58475918 1120403456
0.30273443 0.0039471984 0.58475918 1120403456
0.30273443 0.0039471984 0.58475918 1120403456
15.968119 -4.6270437 2.9437435 1120403456
15.184434 -6.2293725 2.7942958 1120403456
15.43482 -5.7001729 2.6355381 1120403456
15.687656 -5.165113 2.4856427 1120403456
15.971834 -4.640873 2.3397617 1120403456
15.179608 -6.2343163 2.1946344 1120403456
15.478198 -5.7236185 2.0456288 1120403456
15.702579 -5.1788359 1.8909949 1120403456
15.974783 -4.6488233 1.741488 1120403456
15.195576 -6.2497931 1.6086373 1120403456
15.504065 -5.7438145 1.4556652 1120403456
15.708209 -5.1921277 1.302634 1120403456
15.993874 -4.6660433 1.1474028 1120403456
15.205479 -6.2587724 1.018234 1120403456
15.462162 -5.7356567 0.86360115 1120403456
15.721308 -5.2013745 0.7089566 1120403456
15.998922 -4.675828 0.55142438 1120403456
15.212827 -6.2724924 0.43231842 1120403456
15.484877 -5.7504363 0.27685407 1120403456
15.682687 -5.1824136 0.10366821 1120403456
13.776286 -4.0202646 0.04590039 1120403456
11.848144 -4.8643661 0.010344135 1120403456
10.479706 -3.8587294 -0.017421557 1120403456
9.5377159 -3.1242409 -0.049296528 1120403456
8.5989695 -2.4753175 -0.063492924 1120403456
7.6890898 -3.1148505 -0.076221555 1120403456
7.1545596 -2.6004255 -0.089083135 1120403456
6.7455254 -2.1830943 -0.10750001 1120403456
6.2059565 -1.762296 -0.10253263 1120403456
5.6507244 -2.2584469 -0.10783705 1120403456
5.4010582 -1.9383564 -0.11919869 1120403456
5.1365724 -1.638072 -0.12341078 1120403456
4.8648181 -1.3634467 -0.12365764 1120403456
4.492547 -1.7719347 -0.12724836 1120403456
4.3166394 -1.5271165 -0.12968993 1120403456
4.1859951 -1.3170772 -0.1380197 1120403456
3.9968846 -1.1035051 -0.13408682 1120403456
3.6962113 -1.4375465 -0.1321442 1120403456
3.6011751 -1.2563641 -0.13685305 1120403456
3.5257304 -1.093051 -0.14545825 1120403456
3.4959669 -0.95327759 -0.16549394 1120403456
3.1933279 -1.2267966 -0.14791983 1120403456
3.09657 -1.065783 -0.14352873 1120403456
3.069562 -0.93991423 -0.15689455 1120403456
2.9740946 -0.7967937 -0.15407503 1120403456
2.7845588 -1.0566106 -0.15319127 1120403456
2.744009 -0.93230498 -0.15762608 1120403456
2.7065573 -0.81639218 -0.16396262 1120403456
2.6209979 -0.6900394 -0.15686078 1120403456
0.30273443 0.0039471984 0.58475918 1120403456
0.30273443 0.0039471984 0.58475918 1120403456
0.30273443 0.0039471984 0.58475918 1120403456
0.30273443 0.0039471984 0.58475918 1120403456
0.30273443 0.0039471984 0.58475918 1120403456
0.30273443 0.0039471984 0.58475918 1120403456
0.30273443 0.0039471984 0.58475918 1120403456
0.30273443 0.0039471984 0.58475918 1120403456
0.30273443 0.0039471984 0.58475918 1120403456
0.30273443 0.0039471984 0.58475918 1120403456
0.30273443 0.0039471984 0.58475918 1120403456
0.30273443 0.0039471984 0.58475918 1120403456
0.30273443 0.0039471984 0.58475918 1120403456
0.30273443 0.0039471984 0.58475918 1120403456
0.30273443 0.0039471984 0.58475918 1120403456
15.867542 -4.8056459 2.9376769 1120403456
15.114992 -6.4149404 2.7959709 1120403456
15.352584 -5.880981 2.6344526 1120403456
15.603368 -5.3465228 2.4835949 1120403456
15.879456 -4.8221111 2.3362842 1120403456
15.106491 -6.418294 2.1955848 1120403456
15.381722 -5.8995223 2.0436323 1120403456
15.637812 -5.3673482 1.891391 1120403456
15.885061 -4.8309693 1.7395253 1120403456
15.097569 -6.4232707 1.6076998 1120403456
15.395198 -5.9152889 1.4539514 1120403456
15.63574 -5.3780947 1.3026778 1120403456
15.901026 -4.8475266 1.1465337 1120403456
15.117417 -6.436769 1.0183942 1120403456
15.381278 -5.9175811 0.86385566 1120403456
15.640231 -5.3845477 0.70922399 1120403456
15.886848 -4.8514342 0.55190605 1120403456
15.130099 -6.4530001 0.43282163 1120403456
15.37311 -5.9205976 0.27809605 1120403456
15.596195 -5.3631721 0.1047453 1120403456
14.195208 -4.3318033 0.02738844 1120403456
11.830572 -5.0244827 0.0085468013 1120403456
10.507727 -4.0133495 -0.021661652 1120403456
9.4553442 -3.2221093 -0.046073899 1120403456
8.5907698 -2.5841088 -0.065088809 1120403456
7.7242427 -3.237606 -0.082647696 1120403456
7.1220884 -2.6843498 -0.088889629 1120403456
6.7172685 -2.2617002 -0.10723199 1120403456
6.2056584 -1.8414636 -0.1049426 1120403456
5.5925426 -2.3108072 -0.1037654 1120403456
5.3565507 -1.9927964 -0.11623971 1120403456
5.1384764 -1.705229 -0.12658259 1120403456
4.9137731 -1.4400597 -0.13384733 1120403456
4.4803963 -1.8276207 -0.12881956 1120403456
4.2691169 -1.5650501 -0.12449145 1120403456
4.160212 -1.3613863 -0.13618387 1120403456
4.0496268 -1.1696584 -0.147008 1120403456
3.6881564 -1.4834657 -0.13413884 1120403456
3.605504 -1.3047276 -0.14116392 1120403456
3.5544279 -1.1475756 -0.15502028 1120403456
3.4392958 -0.97843778 -0.15488049 1120403456
3.1985106 -1.2712452 -0.15305364 1120403456
3.1410322 -1.1229761 -0.15858591 1120403456
3.0659964 -0.97675681 -0.15903558 1120403456
3.0055826 -0.8425585 -0.16553527 1120403456
2.8119466 -1.1049647 -0.16524526 1120403456
2.7332342 -0.96259069 -0.15782976 1120403456
2.6908903 -0.84394646 -0.16220376 1120403456
2.6077485 -0.71705127 -0.15534118 1120403456
0.30273443 0.0039471984 0.58475918 1120403456
0.30273443 0.0039471984 0.58475918 1120403456
0.30273443 0.0039471984 0.58475918 1120403456
0.30273443 0.0039471984 0.58475918 1120403456
0.30273443 0.0039471984 0.58475918 1120403456
0.30273443 0.0039471984 0.58475918 1120403456
0.30273443 0.0039471984 0.58475918 1120403456
0.30273443 0.0039471984 0.58475918 1120403456
0.30273443 0.0039471984 0.58475918 1120403456
0.30273443 0.0039471984 0.58475918 1120403456
0.30273443 0.0039471984 0.58475918 1120403456
0.30273443 0.0039471984 0.58475918 1120403456
0.30273443 0.0039471984 0.58475918 1120403456
0.30273443 0.0039471984 0.58475918 1120403456
0.30273443 0.0039471984 0.58475918 1120403456
15.780964 -4.9876447 2.9340496 1120403456
14.998024 -6.5794897 2.7908697 1120403456
15.259914 -6.0572777 2.6322443 1120403456
15.52908 -5.5310564 2.4830689 1120403456
15.776478 -4.9990301 2.3318541 1120403456
15.012032 -6.5928655 2.194459 1120403456
15.292446 -6.0776691 2.0425425 1120403456
15.559497 -5.5509591 1.8908355 1120403456
15.798929 -5.0134592 1.7379957 1120403456
15.017578 -6.6042814 1.6081641 1120403456
15.285342 -6.0853357 1.4522991 1120403456
15.547889 -5.5582714 1.3021135 1120403456
15.807993 -5.0280514 1.1457427 1120403456
15.016291 -6.6086311 1.0182414 1120403456
15.300993 -6.099515 0.86417168 1120403456
15.544772 -5.5620565 0.70940125 1120403456
15.810877 -5.0373626 0.55231631 1120403456
15.044277 -6.6320119 0.43334395 1120403456
15.303905 -6.1069913 0.27843842 1120403456
15.485049 -5.5343676 0.1065416 1120403456
14.20937 -4.5242658 0.024972396 1120403456
11.876369 -5.2144618 0.0034668017 1120403456
10.427155 -4.1258664 -0.019544436 1120403456
9.0543242 -3.2020645 -0.020865841 1120403456
8.5697689 -2.689364 -0.065782562 1120403456
7.6539345 -3.31494 -0.079704404 1120403456
7.1199327 -2.7806726 -0.09180212 1120403456
6.6675062 -2.3323996 -0.10473384 1120403456
6.206193 -1.9215064 -0.10756912 1120403456
5.5836477 -2.3845892 -0.10620273 1120403456
5.3408499 -2.0584617 -0.11737178 1120403456
5.1171422 -1.7644827 -0.12645347 1120403456
4.8646827 -1.4864395 -0.12888122 1120403456
4.4567094 -1.878382 -0.12853299 1120403456
4.3244157 -1.6443219 -0.13782388 1120403456
4.1311555 -1.4042423 -0.13382541 1120403456
4.0349474 -1.2155921 -0.14691666 1120403456
3.6821659 -1.5306211 -0.13670303 1120403456
3.5910125 -1.3459446 -0.14146791 1120403456
3.4868348 -1.1678483 -0.14277285 1120403456
3.3954782 -1.0065942 -0.14734036 1120403456
3.1844215 -1.307534 -0.15341589 1120403456
3.1449654 -1.1651564 -0.16323259 1120403456
3.0237467 -0.99956667 -0.15084824 1120403456
2.9949956 -0.87570608 -0.16546938 1120403456
2.7928896 -1.1333117 -0.16358334 1120403456
2.7372048 -0.99898243 -0.16267417 1120403456
2.6902089 -0.87688398 -0.16524948 1120403456
2.603276 -0.74680853 -0.15674989 1120403456
0.30298322 0.0041056871 0.58462936 1120403456
0.30298322 0.0041056871 0.58462936 1120403456
0.30298322 0.0041056871 0.58462936 1120403456
0.30298322 0.0041056871 0.58462936 1120403456
0.30298322 0.0041056871 0.58462936 1120403456
0.30298322 0.0041056871 0.58462936 1120403456
0.30298322 0.0041056871 0.58462936 1120403456
0.30298322 0.0041056871 0.58462936 1120403456
0.30298322 0.0041056871 0.58462936 1120403456
0.30298322 0.0041056871 0.58462936 1120403456
0.30298322 0.0041056871 0.58462936 1120403456
0.30298322 0.0041056871 0.58462936 1120403456
0.30298322 0.0041056871 0.58462936 1120403456
0.30298322 0.0041056871 0.58462936 1120403456
0.30298322 0.0041056871 0.58462936 1120403456
15.691868 -5.1546459 2.9221554 1120403456
14.921619 -6.7476506 2.7839172 1120403456
15.171113 -6.2208443 2.6227152 1120403456
15.428285 -5.6917872 2.4714556 1120403456
15.704763 -5.1718812 2.3232119 1120403456
14.930698 -6.7590551 2.1870418 1120403456
15.18012 -6.2319012 2.0315232 1120403456
15.473016 -5.717557 1.8819318 1120403456
15.698389 -5.17696 1.7277803 1120403456
14.948527 -6.7763529 1.6018405 1120403456
15.185469 -6.2447853 1.4436913 1120403456
15.46944 -5.7278399 1.2944727 1120403456
15.704123 -5.1906009 1.1370511 1120403456
14.948766 -6.7814946 1.0116794 1120403456
15.19883 -6.2582989 0.85668463 1120403456
15.483787 -5.7382603 0.70244658 1120403456
15.717996 -5.203712 0.5453403 1120403456
14.945394 -6.7908511 0.42673883 1120403456
15.21155 -6.2700214 0.27196658 1120403456
15.328759 -5.6738019 0.10252526 1120403456
14.291731 -4.7295165 0.013094889 1120403456
11.686954 -5.2872419 0.0046221036 1120403456
10.485709 -4.2868147 -0.030704631 1120403456
9.4199038 -3.4552379 -0.053125426 1120403456
8.5599394 -2.79142 -0.071334466 1120403456
7.635119 -3.4083161 -0.084996358 1120403456
7.0681491 -2.8505604 -0.093086526 1120403456
6.6178513 -2.3967578 -0.10528824 1120403456
6.2598486 -2.0149105 -0.11934827 1120403456
5.5773797 -2.4550319 -0.11158799 1120403456
5.286603 -2.1033165 -0.11554659 1120403456
5.0955043 -1.8191783 -0.1286111 1120403456
4.8790278 -1.5494125 -0.13606611 1120403456
4.457108 -1.9362781 -0.13442783 1120403456
4.2851501 -1.6817987 -0.13615671 1120403456
4.1579003 -1.4644496 -0.14385089 1120403456
4.0206113 -1.2582278 -0.14871547 1120403456
3.7175734 -1.5941455 -0.14984518 1120403456
3.5761111 -1.3838484 -0.14328665 1120403456
3.4849627 -1.2087097 -0.14706609 1120403456
3.4149947 -1.0525525 -0.15633097 1120403456
3.1778972 -1.344516 -0.15713301 1120403456
3.0740342 -1.1732435 -0.14948815 1120403456
3.0581365 -1.0482228 -0.1647619 1120403456
2.9535117 -0.89583623 -0.15808344 1120403456
2.7979007 -1.1702924 -0.17039353 1120403456
2.7272098 -1.0274585 -0.1644531 1120403456
2.7112069 -0.91605556 -0.17636225 1120403456
2.6197724 -0.78160536 -0.166123 1120403456
0.30298322 0.0041056871 0.58462936 1120403456
0.30298322 0.0041056871 0.58462936 1120403456
0.30298322 0.0041056871 0.58462936 1120403456
0.30298322 0.0041056871 0.58462936 1120403456
0.30298322 0.0041056871 0.58462936 1120403456
0.30298322 0.0041056871 0.58462936 1120403456
0.30298322 0.0041056871 0.58462936 1120403456
0.30298322 0.0041056871 0.58462936 1120403456
0.30298322 0.0041056871 0.58462936 1120403456
0.30298322 0.0041056871 0.58462936 1120403456
0.30298322 0.0041056871 0.58462936 1120403456
0.30298322 0.0041056871 0.58462936 1120403456
0.30298322 0.0041056871 0.58462936 1120403456
0.30298322 0.0041056871 0.58462936 1120403456
0.30298322 0.0041056871 0.58462936 1120403456
15.615244 -5.3387127 2.920701 1120403456
14.826923 -6.921277 2.7827888 1120403456
15.10088 -6.4058533 2.6241827 1120403456
15.354466 -5.8757639 2.4715393 1120403456
15.626002 -5.3554583 2.3220158 1120403456
14.830432 -6.9302311 2.1857567 1120403456
15.086022 -6.4067707 2.0303791 1120403456
15.41558 -5.908648 1.8835623 1120403456
15.670362 -5.3782811 1.7309196 1120403456
14.856112 -6.9516263 1.6017717 1120403456
15.103083 -6.4249001 1.4438907 1120403456
15.394237 -5.9120169 1.2947316 1120403456
15.637329 -5.3785062 1.1373844 1120403456
14.870706 -6.9636998 1.0123628 1120403456
15.136446 -6.4473825 0.85743761 1120403456
15.366563 -5.9062123 0.70252442 1120403456
15.62274 -5.3818722 0.54581904 1120403456
14.860909 -6.9700313 0.42723748 1120403456
15.105935 -6.4405441 0.27301258 1120403456
15.26912 -5.8621693 0.10259567 1120403456
14.244846 -4.9051709 0.012958037 1120403456
10.044168 -4.6699033 0.085770473 1120403456
10.380118 -4.3887434 -0.027217625 1120403456
9.3767681 -3.5668945 -0.052863583 1120403456
8.5033836 -2.8849537 -0.069393367 1120403456
7.6142535 -3.5084343 -0.086725712 1120403456
7.0636406 -2.9469507 -0.09599793 1120403456
6.5768108 -2.4697337 -0.10388778 1120403456
6.2252545 -2.0845962 -0.11808032 1120403456
5.5790167 -2.5351157 -0.11568292 1120403456
5.3012571 -2.1822436 -0.12116345 1120403456
5.0525026 -1.8698995 -0.12544279 1120403456
4.8484306 -1.6015418 -0.13417648 1120403456
4.443665 -1.9923027 -0.13614441 1120403456
4.2506113 -1.7246487 -0.13356556 1120403456
4.0406771 -1.4726102 -0.12496112 1120403456
3.960355 -1.2880812 -0.13980585 1120403456
3.6650054 -1.6201746 -0.14265405 1120403456
3.5687041 -1.4282844 -0.14538956 1120403456
3.4798443 -1.2516656 -0.1492849 1120403456
3.4450276 -1.1059816 -0.16658522 1120403456
3.1514935 -1.3750725 -0.15453243 1120403456
3.0771694 -1.2150235 -0.15413785 1120403456
3.0071723 -1.0670097 -0.15434022 1120403456
2.9313354 -0.9244771 -0.15493673 1120403456
2.7833045 -1.2008674 -0.17030752 1120403456
2.7152519 -1.0575643 -0.1646499 1120403456
2.676554 -0.93640065 -0.16893257 1120403456
2.6288912 -0.81670487 -0.17222276 1120403456
0.30298322 0.0041056871 0.58462936 1120403456
0.30298322 0.0041056871 0.58462936 1120403456
0.30298322 0.0041056871 0.58462936 1120403456
0.30298322 0.0041056871 0.58462936 1120403456
0.30298322 0.0041056871 0.58462936 1120403456
0.30298322 0.0041056871 0.58462936 1120403456
0.30298322 0.0041056871 0.58462936 1120403456
0.30298322 0.0041056871 0.58462936 1120403456
0.30298322 0.0041056871 0.58462936 1120403456
0.30298322 0.0041056871 0.58462936 1120403456
0.30298322 0.0041056871 0.58462936 1120403456
0.30298322 0.0041056871 0.58462936 1120403456
0.30298322 0.0041056871 0.58462936 1120403456
0.30298322 0.0041056871 0.58462936 1120403456
0.30298322 0.0041056871 0.58462936 1120403456
15.515023 -5.513916 2.9159777 1120403456
14.748838 -7.1027813 2.7845137 1120403456
15.008422 -6.5811563 2.622901 1120403456
15.259995 -6.051331 2.4693139 1120403456
15.519825 -5.5287099 2.3179569 1120403456
14.747808 -7.1096392 2.1866596 1120403456
15.017138 -6.592494 2.0319269 1120403456
15.29292 -6.0737224 1.8797774 1120403456
15.589091 -5.5612636 1.730279 1120403456
14.758915 -7.1243277 1.6015245 1120403456
15.033092 -6.6104784 1.4449524 1120403456
15.278848 -6.0797968 1.2932065 1120403456
15.564487 -5.5641832 1.1375933 1120403456
14.770656 -7.1352797 1.0124743 1120403456
15.027891 -6.6161966 0.85739183 1120403456
15.308649 -6.097014 0.70309371 1120403456
15.548919 -5.5670619 0.54624867 1120403456
14.763473 -7.1428452 0.42786363 1120403456
15.042148 -6.6291161 0.27314308 1120403456
15.184895 -6.0408988 0.10339665 1120403456
14.183555 -5.0759239 0.01333444 1120403456
10.392526 -4.9903145 0.065186687 1120403456
10.270838 -4.4875002 -0.023559807 1120403456
9.2454109 -3.6425943 -0.046465248 1120403456
8.3455858 -2.9408343 -0.0594237 1120403456
7.5920324 -3.6085534 -0.088448107 1120403456
7.0169368 -3.0252283 -0.094769105 1120403456
6.5680861 -2.5556097 -0.10613865 1120403456
6.1777182 -2.149291 -0.11536307 1120403456
5.5376801 -2.5948563 -0.11419153 1120403456
5.2848978 -2.2483618 -0.12254088 1120403456
5.029151 -1.928086 -0.12530184 1120403456
4.8070331 -1.6494057 -0.13066202 1120403456
4.4179735 -2.0425696 -0.13584381 1120403456
4.2641492 -1.7888701 -0.13984747 1120403456
4.0970097 -1.5490026 -0.13910574 1120403456
3.9774454 -1.3451083 -0.14631505 1120403456
3.6869912 -1.6823699 -0.15171109 1120403456
3.5080545 -1.4488814 -0.13565834 1120403456
3.4325316 -1.2776322 -0.14183967 1120403456
3.3789742 -1.1253366 -0.15396668 1120403456
3.1421983 -1.4138865 -0.15647843 1120403456
3.0540421 -1.2454054 -0.15191619 1120403456
3.0018976 -1.1034718 -0.15647565 1120403456
2.9306335 -0.96070528 -0.15794253 1120403456
2.7528121 -1.2234833 -0.16546717 1120403456
2.7037964 -1.08793 -0.16511825 1120403456
2.6479793 -0.95858347 -0.16348386 1120403456
2.6356997 -0.85148764 -0.17773309 1120403456
0.30298322 0.0041056871 0.58462936 1120403456
0.30298322 0.0041056871 0.58462936 1120403456
0.30298322 0.0041056871 0.58462936 1120403456
0.30298322 0.0041056871 0.58462936 1120403456
0.30298322 0.0041056871 0.58462936 1120403456
0.30298322 0.0041056871 0.58462936 1120403456
0.30298322 0.0041056871 0.58462936 1120403456
0.30298322 0.0041056871 0.58462936 1120403456
0.30298322 0.0041056871 0.58462936 1120403456
0.30298322 0.0041056871 0.58462936 1120403456
0.30298322 0.0041056871 0.58462936 1120403456
0.30298322 0.0041056871 0.58462936 1120403456
0.30298322 0.0041056871 0.58462936 1120403456
0.30298322 0.0041056871 0.58462936 1120403456
0.30298322 0.0041056871 0.58462936 1120403456
15.42485 -5.6920004 2.9131184 1120403456
14.662299 -7.2802753 2.7853017 1120403456
14.926497 -6.7609882 2.6233866 1120403456
15.180889 -6.2327633 2.4693031 1120403456
15.445195 -5.7128081 2.3177397 1120403456
14.681601 -7.2975235 2.1896534 1120403456
14.921518 -6.7661896 2.0310719 1120403456
15.185953 -6.2440109 1.8775179 1120403456
15.472054 -5.7303634 1.727119 1120403456
14.679242 -7.305644 1.6026733 1120403456
14.934505 -6.7831216 1.4444817 1120403456
15.182799 -6.2545462 1.2926977 1120403456
15.448276 -5.7333069 1.1363153 1120403456
14.672153 -7.3072662 1.0127019 1120403456
14.961864 -6.8039556 0.85818446 1120403456
15.20039 -6.2671065 0.70329332 1120403456
15.462575 -5.7473488 0.5467152 1120403456
14.684483 -7.3247614 0.42827705 1120403456
14.923375 -6.7926474 0.27440152 1120403456
15.109596 -6.2230954 0.10384917 1120403456
14.18556 -5.2707558 0.011019619 1120403456
10.337599 -5.1174173 0.065181501 1120403456
10.09639 -4.5543242 -0.015956713 1120403456
9.2202148 -3.7606349 -0.047626391 1120403456
8.417902 -3.0808043 -0.067969739 1120403456
7.5569158 -3.7027588 -0.089092016 1120403456
7.0099468 -3.1217356 -0.097667709 1120403456
6.5682745 -2.6459057 -0.10950007 1120403456
6.1824346 -2.2332816 -0.11897835 1120403456
5.5151186 -2.6639187 -0.1153082 1120403456
5.2371163 -2.3001394 -0.11955364 1120403456
5.0379243 -1.9998796 -0.13011414 1120403456
4.7956481 -1.7081192 -0.13201042 1120403456
4.3406839 -2.0663614 -0.12655938 1120403456
4.2418518 -1.8373902 -0.13971542 1120403456
4.0794811 -1.5962577 -0.13933726 1120403456
3.9247916 -1.376488 -0.13905445 1120403456
3.6241369 -1.7022841 -0.14241447 1120403456
3.5086181 -1.4968722 -0.13976178 1120403456
3.4147701 -1.3152223 -0.14132386 1120403456
3.3958786 -1.174859 -0.16135594 1120403456
3.0769684 -1.42415 -0.14386997 1120403456
3.0569761 -1.287782 -0.15679705 1120403456
2.9898901 -1.1373124 -0.15688524 1120403456
2.9276309 -0.99636698 -0.16043296 1120403456
2.7452793 -1.2574854 -0.16775398 1120403456
2.6980534 -1.1210372 -0.16749848 1120403456
2.6271651 -0.98358333 -0.16058162 1120403456
