16.064661,-4.4264464,2.8228304,50.0
16.327019,-3.880702,2.6719296,50.0
16.612625,-3.3273525,2.5309322,50.0
16.895435,-2.767868,2.3880684,50.0
16.070969,-4.434664,2.2154257,50.0
16.347937,-3.8923912,2.0680718,50.0
16.597279,-3.3325057,1.9183933,50.0
16.933243,-2.780935,1.774668,50.0
16.070114,-4.4426293,1.6191487,50.0
16.366047,-3.9066758,1.4669425,50.0
16.629698,-3.3501124,1.317254,50.0
16.911785,-2.7885513,1.1604093,50.0
16.09865,-4.455038,1.0208333,50.0
16.362577,-3.9130473,0.8653592,50.0
16.662737,-3.3613553,0.708755,50.0
16.929018,-2.799393,0.54726446,50.0
16.122995,-4.4719353,0.42577025,50.0
16.437346,-3.937038,0.2659977,50.0
16.304646,-3.2815938,0.09716122,50.0
13.908384,-2.2965899,0.053366244,50.0
12.217838,-3.3746448,0.013921844,50.0
10.595658,-2.5149863,-0.0038751792,50.0
9.489555,-1.8951607,-0.027243761,50.0
8.747581,-1.4251244,-0.058092847,50.0
8.0114155,-2.1857686,-0.07787661,50.0
7.4208,-1.7414894,-0.09066494,50.0
6.871207,-1.3581996,-0.099184506,50.0
6.4247336,-1.0339837,-0.1090275,50.0
5.842495,-1.5736105,-0.10369855,50.0
5.5195117,-1.2793636,-0.10967806,50.0
5.3021216,-1.0338122,-0.12461574,50.0
4.890564,-0.7760793,-0.10835468,50.0
4.6061563,-1.2246864,-0.1166111,50.0
4.444112,-1.0165374,-0.1255808,50.0
4.2239423,-0.8117262,-0.12185147,50.0
4.020284,-0.6282288,-0.11885901,50.0
3.811217,-1.0006349,-0.12579864,50.0
3.7648158,-0.85116994,-0.14487867,50.0
3.580189,-0.67830133,-0.13399597,50.0
3.4967265,-0.5390707,-0.14502908,50.0
3.2997117,-0.8568337,-0.14324574,50.0
3.2045493,-0.71486235,-0.14374207,50.0
3.0930638,-0.5788436,-0.13904952,50.0
3.0024006,-0.4549265,-0.14127648,50.0
2.868773,-0.7366569,-0.14620987,50.0
2.8280492,-0.62299097,-0.15467346,50.0
2.8273194,-0.5235871,-0.17609651,50.0
2.7478275,-0.410689,-0.1757897,50.0
0.30273443,0.0039471984,0.5847592,50.0
0.30273443,0.0039471984,0.5847592,50.0
0.30273443,0.0039471984,0.5847592,50.0
0.30273443,0.0039471984,0.5847592,50.0
0.30273443,0.0039471984,0.5847592,50.0
0.30273443,0.0039471984,0.5847592,50.0
0.30273443,0.0039471984,0.5847592,50.0
0.30273443,0.0039471984,0.5847592,50.0
0.30273443,0.0039471984,0.5847592,50.0
0.30273443,0.0039471984,0.5847592,50.0
0.30273443,0.0039471984,0.5847592,50.0
74.73297,-13.233938,14.337275,50.0
0.30273443,0.0039471984,0.5847592,50.0
0.30273443,0.0039471984,0.5847592,50.0
74.383316,-16.00549,12.242182,50.0
16.77301,-2.9431233,2.9980426,50.0
15.97773,-4.610172,2.8187153,50.0
16.239683,-4.0671077,2.6672308,50.0
16.533623,-3.5191278,2.5268142,50.0
16.811234,-2.9623792,2.3830025,50.0
15.991442,-4.6206994,2.2133043,50.0
16.251627,-4.0768113,2.0640125,50.0
16.548285,-3.5306501,1.9181288,50.0
16.795712,-2.9663491,1.767611,50.0
16.0,-4.6314826,1.6185592,50.0
16.258808,-4.088565,1.4640712,50.0
16.540453,-3.539947,1.3154421,50.0
16.853643,-2.9880352,1.159889,50.0
16.011106,-4.639164,1.0203129,50.0
16.2949,-4.1050854,0.86536354,50.0
16.542053,-3.544777,0.708457,50.0
16.823503,-2.990549,0.54768777,50.0
16.021816,-4.652396,0.42658168,50.0
16.327738,-4.119307,0.26751524,50.0
16.391058,-3.5056481,0.093545526,50.0
13.912559,-2.469482,0.05227685,50.0
12.186019,-3.523766,0.013685675,50.0
10.240079,-2.5576477,0.014908658,50.0
9.628331,-2.043525,-0.037945002,50.0
8.79711,-1.5409963,-0.06312047,50.0
7.9190097,-2.2609224,-0.07209946,50.0
7.3988495,-1.8287456,-0.09051937,50.0
6.8870344,-1.4460149,-0.10251254,50.0
6.4232726,-1.1112087,-0.11026135,50.0
5.8341413,-1.6449158,-0.10499649,50.0
5.493774,-1.3408372,-0.10828938,50.0
5.311262,-1.1000285,-0.12768896,50.0
4.9497333,-0.8449801,-0.11873896,50.0
4.557629,-1.2675433,-0.11109486,50.0
4.254644,-1.0214883,-0.09510793,50.0
4.2174873,-0.8606738,-0.12247461,50.0
4.048997,-0.6805558,-0.12576868,50.0
3.8211954,-1.0504167,-0.13030477,50.0
3.7426875,-0.8906735,-0.14240234,50.0
3.6269457,-0.7307483,-0.14611012,50.0
3.5003827,-0.5801952,-0.14739469,50.0
3.2973204,-0.89611065,-0.14522323,50.0
3.220898,-0.75707936,-0.15007421,50.0
3.1159868,-0.6197965,-0.14687327,50.0
3.0422125,-0.49639893,-0.15353361,50.0
2.884426,-0.77566063,-0.1532779,50.0
2.7931807,-0.6469221,-0.14669454,50.0
2.8094234,-0.55207944,-0.17265496,50.0
2.7124615,-0.43522096,-0.1663686,50.0
0.30273443,0.0039471984,0.5847592,50.0
0.30273443,0.0039471984,0.5847592,50.0
0.30273443,0.0039471984,0.5847592,50.0
0.30273443,0.0039471984,0.5847592,50.0
0.30273443,0.0039471984,0.5847592,50.0
0.30273443,0.0039471984,0.5847592,50.0
0.30273443,0.0039471984,0.5847592,50.0
0.30273443,0.0039471984,0.5847592,50.0
0.30273443,0.0039471984,0.5847592,50.0
0.30273443,0.0039471984,0.5847592,50.0
0.30273443,0.0039471984,0.5847592,50.0
74.618,-14.155634,14.348352,50.0
0.30273443,0.0039471984,0.5847592,50.0
0.30273443,0.0039471984,0.5847592,50.0
74.259254,-16.93055,12.255888,50.0
16.666574,-3.13165,2.9881794,50.0
15.894346,-4.794181,2.8154225,50.0
16.171267,-4.2576175,2.665305,50.0
16.443663,-3.7074656,2.5216603,50.0
16.703276,-3.1511102,2.3756013,50.0
15.891657,-4.7998857,2.2093096,50.0
16.167639,-4.263339,2.061305,50.0
16.458998,-3.719366,1.9147568,50.0
16.72765,-3.1625943,1.7657031,50.0
15.918089,-4.816342,1.6173491,50.0
16.16303,-4.2720523,1.4619548,50.0
16.45875,-3.7303476,1.314079,50.0
16.72835,-3.173984,1.1571229,50.0
15.909964,-4.818274,1.0194827,50.0
16.186321,-4.285626,0.8646977,50.0
16.459288,-3.7349887,0.7084731,50.0
16.726612,-3.1816335,0.54809606,50.0
15.908091,-4.827796,0.42750773,50.0
16.229607,-4.303136,0.26877326,50.0
16.312695,-3.694963,0.09489237,50.0
14.234305,-2.7050014,0.03866355,50.0
12.098904,-3.6560369,0.016034069,50.0
10.392935,-2.72956,0.0044778455,50.0
9.64916,-2.16869,-0.04089114,50.0
8.778493,-1.6453459,-0.063052624,50.0
7.9448943,-2.371111,-0.07661544,50.0
7.352765,-1.9094658,-0.0881674,50.0
6.813524,-1.51387,-0.09660794,50.0
6.4422965,-1.1927373,-0.11393277,50.0
5.824871,-1.716253,-0.10629012,50.0
5.5103774,-1.4135947,-0.11266452,50.0
5.147831,-1.1265628,-0.10626988,50.0
4.9049935,-0.8953426,-0.11350583,50.0
4.5520825,-1.3229399,-0.11269729,50.0
4.3949876,-1.1117182,-0.12146626,50.0
4.2612467,-0.92146754,-0.13230133,50.0
4.0644393,-0.731231,-0.1302904,50.0
3.7864516,-1.0868092,-0.12582715,50.0
3.6983767,-0.9238236,-0.13531469,50.0
3.584363,-0.76373327,-0.13870093,50.0
3.5035102,-0.6214912,-0.14975774,50.0
3.3102102,-0.94041824,-0.15106262,50.0
3.2141542,-0.79364467,-0.15072206,50.0
3.0901961,-0.6501075,-0.14214413,50.0
3.0282812,-0.52853835,-0.1514375,50.0
2.8663898,-0.8047142,-0.15084118,50.0
2.783155,-0.6769675,-0.14609465,50.0
2.7706678,-0.57538915,-0.16298795,50.0
2.6984496,-0.46315515,-0.1636896,50.0
0.30273443,0.0039471984,0.5847592,50.0
0.30273443,0.0039471984,0.5847592,50.0
0.30273443,0.0039471984,0.5847592,50.0
0.30273443,0.0039471984,0.5847592,50.0
0.30273443,0.0039471984,0.5847592,50.0
0.30273443,0.0039471984,0.5847592,50.0
0.30273443,0.0039471984,0.5847592,50.0
0.30273443,0.0039471984,0.5847592,50.0
0.30273443,0.0039471984,0.5847592,50.0
0.30273443,0.0039471984,0.5847592,50.0
0.30273443,0.0039471984,0.5847592,50.0
74.39421,-15.05671,14.341403,50.0
0.30273443,0.0039471984,0.5847592,50.0
0.30273443,0.0039471984,0.5847592,50.0
74.204315,-17.874496,12.28242,50.0
16.59873,-3.326336,2.9843228,50.0
15.7824,-4.968356,2.808345,50.0
16.054743,-4.4341483,2.6573586,50.0
16.358284,-3.8957686,2.5173292,50.0
16.606821,-3.3404384,2.3697019,50.0
15.806896,-4.9828053,2.2071078,50.0
16.066143,-4.444092,2.0571744,50.0
16.35494,-3.9033594,1.9103546,50.0
16.59961,-3.3457694,1.7596496,50.0
15.80551,-4.99071,1.6142561,50.0
16.073805,-4.4562526,1.4603279,50.0
16.346678,-3.9124084,1.3114511,50.0
16.63134,-3.3635683,1.1554255,50.0
15.835339,-5.0048056,1.01946,50.0
16.083422,-4.4663033,0.86417663,50.0
16.348076,-3.917296,0.708297,50.0
16.64809,-3.3750463,0.5484681,50.0
15.834305,-5.014637,0.42801934,50.0
16.13227,-4.4859986,0.26998287,50.0
16.198128,-3.8745918,0.097291306,50.0
14.155006,-2.866462,0.040675506,50.0
12.142441,-3.829474,0.01199797,50.0
10.358634,-2.8532083,0.0046991576,50.0
9.645059,-2.288965,-0.042267933,50.0
8.769337,-1.7516985,-0.06380162,50.0
7.9265532,-2.4684393,-0.07741828,50.0
7.3076873,-1.9898772,-0.08599496,50.0
6.8040714,-1.5960691,-0.09749308,50.0
6.428126,-1.2682302,-0.11393602,50.0
5.792018,-1.7802451,-0.10473271,50.0
5.5259724,-1.4869599,-0.1170346,50.0
5.2480454,-1.2141645,-0.12254304,50.0
5.000132,-0.9739667,-0.12962411,50.0
4.5589685,-1.3826768,-0.11646296,50.0
4.4502287,-1.1816852,-0.13336395,50.0
4.239079,-0.96742046,-0.13031241,50.0
4.0541754,-0.77717817,-0.13004093,50.0
3.8278582,-1.1475005,-0.13701397,50.0
3.7074606,-0.9714004,-0.1396483,50.0
3.57375,-0.80375314,-0.1384261,50.0
3.4545293,-0.6522145,-0.14025435,50.0
3.3298647,-0.98760223,-0.15871716,50.0
3.2069533,-0.8301588,-0.15136778,50.0
3.1374733,-0.69805276,-0.15660611,50.0
2.984639,-0.55430484,-0.14139664,50.0
2.8407016,-0.8310311,-0.14629176,50.0
2.7995756,-0.71457934,-0.1534188,50.0
2.7419636,-0.6003686,-0.15643233,50.0
2.6700754,-0.48789465,-0.15661201,50.0
0.30273443,0.0039471984,0.5847592,50.0
0.30273443,0.0039471984,0.5847592,50.0
0.30273443,0.0039471984,0.5847592,50.0
0.30273443,0.0039471984,0.5847592,50.0
0.30273443,0.0039471984,0.5847592,50.0
0.30273443,0.0039471984,0.5847592,50.0
0.30273443,0.0039471984,0.5847592,50.0
0.30273443,0.0039471984,0.5847592,50.0
0.30273443,0.0039471984,0.5847592,50.0
0.30273443,0.0039471984,0.5847592,50.0
0.30273443,0.0039471984,0.5847592,50.0
74.34799,-15.995158,14.369593,50.0
0.30273443,0.0039471984,0.5847592,50.0
0.30273443,0.0039471984,0.5847592,50.0
0.30273443,0.0039471984,0.5847592,50.0
16.480211,-3.509326,2.9733357,50.0
15.695778,-5.1496325,2.8052058,50.0
15.975294,-4.6199756,2.654572,50.0
16.254364,-4.0783505,2.511032,50.0
16.516941,-3.5297832,2.3647718,50.0
15.730375,-5.16785,2.206006,50.0
15.98744,-4.6303387,2.055381,50.0
16.259432,-4.0880857,1.9068413,50.0
16.523163,-3.5379868,1.7574794,50.0
15.72507,-5.1744785,1.6134431,50.0
16.004475,-4.6454306,1.4599373,50.0
16.249027,-4.0965133,1.3095791,50.0
16.552662,-3.5557437,1.1544564,50.0
15.718691,-5.176859,1.0183278,50.0
16.008205,-4.6539154,0.86419296,50.0
16.281319,-4.1094055,0.7084894,50.0
16.545813,-3.5622926,0.5488976,50.0
15.727958,-5.190182,0.42884746,50.0
16.039562,-4.6691136,0.27106777,50.0
16.171606,-4.0751104,0.09693076,50.0
14.231948,-3.0611763,0.03647232,50.0
12.138051,-3.9891977,0.010180028,50.0
10.345789,-2.983258,0.0035982896,50.0
9.628781,-2.406718,-0.04292208,50.0
8.746184,-1.8552861,-0.06357218,50.0
7.863541,-2.550999,-0.07442883,50.0
7.3141894,-2.0851097,-0.08886142,50.0
6.7743216,-1.6732728,-0.09634623,50.0
6.423703,-1.345911,-0.11515574,50.0
5.759369,-1.8440082,-0.10329065,50.0
5.508238,-1.551269,-0.11704376,50.0
5.2442336,-1.2777832,-0.124092,50.0
5.0331745,-1.0416107,-0.13645874,50.0
4.598704,-1.4542131,-0.12579508,50.0
4.4136353,-1.2260296,-0.1294929,50.0
4.1630054,-0.9990995,-0.11859581,50.0
4.05583,-0.82574236,-0.13217251,50.0
3.8134673,-1.1907136,-0.13692531,50.0
3.7065008,-1.0165259,-0.14197497,50.0
3.6345668,-0.86232626,-0.15409707,50.0
3.4872048,-0.6999377,-0.149643,50.0
3.2971966,-1.0177989,-0.15364091,50.0
3.206738,-0.8688537,-0.15390477,50.0
3.1596007,-0.7408986,-0.16466692,50.0
3.004018,-0.5930561,-0.14852148,50.0
2.839393,-0.8652816,-0.14886652,50.0
2.7758372,-0.74077,-0.14898917,50.0
2.7649958,-0.6382872,-0.16571707,50.0
2.6647992,-0.51715696,-0.15686184,50.0
0.30273443,0.0039471984,0.5847592,50.0
0.30273443,0.0039471984,0.5847592,50.0
0.30273443,0.0039471984,0.5847592,50.0
0.30273443,0.0039471984,0.5847592,50.0
0.30273443,0.0039471984,0.5847592,50.0
0.30273443,0.0039471984,0.5847592,50.0
0.30273443,0.0039471984,0.5847592,50.0
0.30273443,0.0039471984,0.5847592,50.0
0.30273443,0.0039471984,0.5847592,50.0
0.30273443,0.0039471984,0.5847592,50.0
0.30273443,0.0039471984,0.5847592,50.0
0.30273443,0.0039471984,0.5847592,50.0
0.30273443,0.0039471984,0.5847592,50.0
0.30273443,0.0039471984,0.5847592,50.0
0.30273443,0.0039471984,0.5847592,50.0
16.39632,-3.6983461,2.9677846,50.0
15.620137,-5.334098,2.8039737,50.0
15.885128,-4.801891,2.6506643,50.0
16.150305,-4.25949,2.5049765,50.0
16.424873,-3.7174263,2.3598511,50.0
15.635674,-5.346195,2.2032285,50.0
15.904638,-4.8147354,2.0534184,50.0
16.18202,-4.2765083,1.9050174,50.0
16.44251,-3.7283845,1.7551785,50.0
15.66695,-5.365587,1.614281,50.0
15.913799,-4.827673,1.4584894,50.0
16.152178,-4.279595,1.3078483,50.0
16.429867,-3.7367873,1.1520246,50.0
15.649235,-5.3639684,1.0185906,50.0
15.918344,-4.836507,0.8639971,50.0
16.163034,-4.2871475,0.7083087,50.0
16.425829,-3.7439165,0.54937035,50.0
15.648902,-5.37413,0.42938772,50.0
15.957161,-4.854484,0.2719137,50.0
16.07597,-4.257571,0.09863418,50.0
14.115434,-3.2137709,0.0398086,50.0
12.000505,-4.103389,0.014756309,50.0
10.319819,-3.1098661,0.0031696875,50.0
9.641836,-2.5327873,-0.045649394,50.0
8.595513,-1.9291406,-0.05361812,50.0
7.841025,-2.6469321,-0.07505663,50.0
7.267113,-2.164519,-0.086680055,50.0
6.8079705,-1.7675004,-0.10198475,50.0
6.405714,-1.4207363,-0.11492831,50.0
5.746586,-1.9144995,-0.10445382,50.0
5.488765,-1.6150713,-0.11692122,50.0
5.229093,-1.3386273,-0.12412442,50.0
4.6347528,-1.0094991,-0.07747698,50.0
4.572106,-1.5039008,-0.12429145,50.0
4.407651,-1.2793682,-0.13103774,50.0
4.1798615,-1.0544751,-0.12389667,50.0
4.054942,-0.8740169,-0.13393438,50.0
3.799472,-1.2340741,-0.13702524,50.0
3.6497838,-1.0444955,-0.1324784,50.0
3.6038828,-0.8977798,-0.14961982,50.0
3.4792817,-0.7392273,-0.149802,50.0
3.2523165,-1.0431087,-0.14560947,50.0
3.224549,-0.91348994,-0.16117236,50.0
3.134357,-0.77159107,-0.16042367,50.0
3.0162582,-0.6308261,-0.15385011,50.0
2.845802,-0.9025402,-0.1538139,50.0
2.7848685,-0.77687776,-0.15439568,50.0
2.6847782,-0.6487274,-0.1436015,50.0
2.694541,-0.55462635,-0.16824831,50.0
0.30273443,0.0039471984,0.5847592,50.0
0.30273443,0.0039471984,0.5847592,50.0
0.30273443,0.0039471984,0.5847592,50.0
0.30273443,0.0039471984,0.5847592,50.0
0.30273443,0.0039471984,0.5847592,50.0
0.30273443,0.0039471984,0.5847592,50.0
0.30273443,0.0039471984,0.5847592,50.0
0.30273443,0.0039471984,0.5847592,50.0
0.30273443,0.0039471984,0.5847592,50.0
0.30273443,0.0039471984,0.5847592,50.0
0.30273443,0.0039471984,0.5847592,50.0
0.30273443,0.0039471984,0.5847592,50.0
0.30273443,0.0039471984,0.5847592,50.0
0.30273443,0.0039471984,0.5847592,50.0
0.30273443,0.0039471984,0.5847592,50.0
16.316963,-3.8874755,2.963243,50.0
15.511548,-5.506346,2.7982774,50.0
15.780584,-4.9783406,2.6451316,50.0
16.058546,-4.4427385,2.500673,50.0
16.331615,-3.903582,2.3550463,50.0
15.573532,-5.535552,2.2041297,50.0
15.813042,-4.9956613,2.0508378,50.0
16.053473,-4.4498143,1.8991212,50.0
16.348005,-3.914497,1.7520411,50.0
15.568942,-5.5424185,1.6126037,50.0
15.817219,-5.0071654,1.4568369,50.0
16.072464,-4.4663696,1.3070067,50.0
16.365274,-3.9300947,1.1517254,50.0
15.554959,-5.5419564,1.0182228,50.0
15.841595,-5.022521,0.8640841,50.0
16.102448,-4.4795337,0.70860344,50.0
16.366968,-3.93863,0.5497137,50.0
15.551686,-5.5511,0.4300998,50.0
15.862123,-5.0351477,0.27297887,50.0
15.929205,-4.424403,0.10186219,50.0
14.085585,-3.385686,0.039659172,50.0
11.475333,-4.073705,0.038247675,50.0
10.747188,-3.3838496,-0.023756845,50.0
9.545705,-2.6289206,-0.041090295,50.0
8.51501,-2.016975,-0.04911934,50.0
7.777041,-2.727986,-0.072141334,50.0
7.2513466,-2.2535493,-0.08761074,50.0
6.7752233,-1.8442307,-0.10072708,50.0
6.309613,-1.4763007,-0.10582177,50.0
5.7235703,-1.98154,-0.10442734,50.0
5.467568,-1.6783226,-0.11666702,50.0
5.2217746,-1.4017417,-0.12539083,50.0
4.9379196,-1.1406336,-0.12582329,50.0
4.564414,-1.5603044,-0.12603378,50.0
4.4028516,-1.3333564,-0.13290763,50.0
4.186467,-1.1077056,-0.12745732,50.0
3.9971254,-0.9084873,-0.12487734,50.0
3.7619114,-1.2687981,-0.13234837,50.0
3.6701958,-1.0964868,-0.13960843,50.0
3.6010325,-0.9406867,-0.1514352,50.0
3.481292,-0.78100145,-0.15237486,50.0
3.2694004,-1.0903895,-0.15302876,50.0
3.1936853,-0.94296765,-0.15613174,50.0
3.161896,-0.81702363,-0.17020088,50.0
3.0185912,-0.66666853,-0.1566143,50.0
2.8344908,-0.9337219,-0.15374556,50.0
2.790642,-0.81241953,-0.15897995,50.0
2.683969,-0.6800698,-0.14581154,50.0
2.669873,-0.57963026,-0.1626322,50.0
0.30273443,0.0039471984,0.5847592,50.0
0.30273443,0.0039471984,0.5847592,50.0
0.30273443,0.0039471984,0.5847592,50.0
0.30273443,0.0039471984,0.5847592,50.0
0.30273443,0.0039471984,0.5847592,50.0
0.30273443,0.0039471984,0.5847592,50.0
0.30273443,0.0039471984,0.5847592,50.0
0.30273443,0.0039471984,0.5847592,50.0
0.30273443,0.0039471984,0.5847592,50.0
0.30273443,0.0039471984,0.5847592,50.0
0.30273443,0.0039471984,0.5847592,50.0
0.30273443,0.0039471984,0.5847592,50.0
0.30273443,0.0039471984,0.5847592,50.0
0.30273443,0.0039471984,0.5847592,50.0
0.30273443,0.0039471984,0.5847592,50.0
16.231558,-4.0742335,2.9581397,50.0
15.439063,-5.691041,2.798149,50.0
15.683469,-5.156107,2.6408646,50.0
15.979923,-4.6288834,2.4982386,50.0
16.24489,-4.090236,2.3512108,50.0
15.466218,-5.708053,2.2004776,50.0
15.726911,-5.1776047,2.0489833,50.0
15.973732,-4.635613,1.8974758,50.0
16.240742,-4.0961213,1.7481372,50.0
15.484785,-5.7236433,1.6120092,50.0
15.70534,-5.180557,1.4544452,50.0
15.994387,-4.6529703,1.3063512,50.0
16.259657,-4.1123967,1.1500652,50.0
15.477336,-5.7255015,1.0183985,50.0
15.734213,-5.197799,0.8636673,50.0
15.995432,-4.657982,0.70856094,50.0
16.267035,-4.1224527,0.5501515,50.0
15.479564,-5.7367554,0.430545,50.0
15.75175,-5.2097373,0.27431953,50.0
15.87369,-4.6158566,0.10221623,50.0
14.228683,-3.6026993,0.032577157,50.0
11.80558,-4.354956,0.019835817,50.0
10.570512,-3.4663997,-0.015641375,50.0
9.567212,-2.7584357,-0.04458289,50.0
8.544618,-2.1318948,-0.05321008,50.0
7.7960677,-2.8396938,-0.07662429,50.0
7.2674556,-2.353694,-0.091742665,50.0
6.718698,-1.9135864,-0.097034425,50.0
6.3583384,-1.5674157,-0.1134627,50.0
5.720148,-2.0560687,-0.10700439,50.0
5.4146075,-1.7307801,-0.1121839,50.0
5.1832814,-1.4557967,-0.12225433,50.0
4.957034,-1.2061796,-0.13087967,50.0
4.577215,-1.6248374,-0.13132983,50.0
4.3385024,-1.3674254,-0.12443412,50.0
4.2206507,-1.169735,-0.13622256,50.0
3.9285696,-0.93895006,-0.1138033,50.0
3.7817996,-1.3248522,-0.13970011,50.0
3.7139452,-1.157345,-0.15194225,50.0
3.5554793,-0.97102654,-0.14380781,50.0
3.44782,-0.8138524,-0.14681885,50.0
3.235744,-1.1190939,-0.1479486,50.0
3.1708171,-0.97465014,-0.15321958,50.0
3.1543956,-0.8529285,-0.1708734,50.0
3.0213878,-0.7029073,-0.15963237,50.0
2.815595,-0.96199346,-0.15156493,50.0
2.7676973,-0.83857524,-0.15509221,50.0
2.6928527,-0.7145282,-0.15113059,50.0
2.665314,-0.6093981,-0.16346283,50.0
0.30273443,0.0039471984,0.5847592,50.0
0.30273443,0.0039471984,0.5847592,50.0
0.30273443,0.0039471984,0.5847592,50.0
0.30273443,0.0039471984,0.5847592,50.0
0.30273443,0.0039471984,0.5847592,50.0
0.30273443,0.0039471984,0.5847592,50.0
0.30273443,0.0039471984,0.5847592,50.0
0.30273443,0.0039471984,0.5847592,50.0
0.30273443,0.0039471984,0.5847592,50.0
0.30273443,0.0039471984,0.5847592,50.0
0.30273443,0.0039471984,0.5847592,50.0
0.30273443,0.0039471984,0.5847592,50.0
0.30273443,0.0039471984,0.5847592,50.0
0.30273443,0.0039471984,0.5847592,50.0
0.30273443,0.0039471984,0.5847592,50.0
16.115309,-4.2517667,2.9487593,50.0
15.346797,-5.8679423,2.7954535,50.0
15.615231,-5.343034,2.6407564,50.0
15.898155,-4.813476,2.4956977,50.0
16.15888,-4.2761297,2.3477056,50.0
15.381998,-5.888536,2.1995134,50.0
15.639593,-5.358516,2.047228,50.0
15.902279,-4.8233676,1.8967212,50.0
16.165148,-4.284817,1.7467109,50.0
15.408702,-5.9076385,1.6121193,50.0
15.675424,-5.3813434,1.4568195,50.0
15.901703,-4.8344817,1.3051324,50.0
16.161638,-4.2953157,1.1487566,50.0
15.36865,-5.8966765,1.0177548,50.0
15.631475,-5.373518,0.8633788,50.0
15.930357,-4.848119,0.7088758,50.0
16.14861,-4.2999625,0.5506336,50.0
15.40239,-5.9203806,0.43102887,50.0
15.654535,-5.387679,0.2753642,50.0
15.804373,-4.803061,0.10293703,50.0
14.284621,-3.8009005,0.028847741,50.0
11.026052,-4.21079,0.055923037,50.0
10.568602,-3.6067495,-0.017808972,50.0
9.58883,-2.8894663,-0.048196465,50.0
8.531261,-2.2365785,-0.054080695,50.0
7.741138,-2.9238062,-0.07468644,50.0
7.2380037,-2.439022,-0.0915627,50.0
6.7060833,-1.9957736,-0.09809855,50.0
6.38271,-1.6536729,-0.11843508,50.0
5.704626,-2.1264403,-0.10815471,50.0
5.403226,-1.7970517,-0.11345978,50.0
5.1848583,-1.5218232,-0.12502576,50.0
4.952333,-1.2661116,-0.1323994,50.0
4.5578284,-1.677573,-0.13136353,50.0
4.2990537,-1.4089961,-0.12039107,50.0
4.239792,-1.2283571,-0.1423791,50.0
3.9499204,-0.99248135,-0.1201409,50.0
3.7670605,-1.3682096,-0.13998334,50.0
3.699442,-1.1991603,-0.15185373,50.0
3.5647345,-1.017632,-0.14855549,50.0
3.4271994,-0.84959984,-0.14433618,50.0
3.2117898,-1.1510906,-0.1453664,50.0
3.1503558,-1.0068893,-0.15101579,50.0
3.1140766,-0.8786112,-0.16293553,50.0
3.0358253,-0.74262655,-0.1659779,50.0
2.7972844,-0.9902997,-0.14964676,50.0
2.771679,-0.8739599,-0.15939903,50.0
2.684775,-0.74413395,-0.15135686,50.0
2.6548464,-0.6376327,-0.16253337,50.0
0.30273443,0.0039471984,0.5847592,50.0
0.30273443,0.0039471984,0.5847592,50.0
0.30273443,0.0039471984,0.5847592,50.0
0.30273443,0.0039471984,0.5847592,50.0
0.30273443,0.0039471984,0.5847592,50.0
0.30273443,0.0039471984,0.5847592,50.0
0.30273443,0.0039471984,0.5847592,50.0
0.30273443,0.0039471984,0.5847592,50.0
0.30273443,0.0039471984,0.5847592,50.0
0.30273443,0.0039471984,0.5847592,50.0
0.30273443,0.0039471984,0.5847592,50.0
0.30273443,0.0039471984,0.5847592,50.0
0.30273443,0.0039471984,0.5847592,50.0
0.30273443,0.0039471984,0.5847592,50.0
0.30273443,0.0039471984,0.5847592,50.0
16.03807,-4.4386296,2.9455318,50.0
15.271759,-6.051242,2.795616,50.0
15.508354,-5.515862,2.635753,50.0
15.801933,-4.9927998,2.4916546,50.0
16.05158,-4.4551144,2.3420744,50.0
15.304855,-6.07155,2.1995513,50.0
15.553904,-5.5394278,2.0458407,50.0
15.818146,-5.0066986,1.8950953,50.0
16.053738,-4.4627533,1.7428248,50.0
15.285074,-6.0722513,1.6091411,50.0
15.576274,-5.5579147,1.4554086,50.0
15.816439,-5.0174975,1.3043637,50.0
16.064423,-4.4772716,1.14756,50.0
15.301588,-6.0837183,1.0183778,50.0
15.557755,-5.558803,0.8636655,50.0
15.809708,-5.0201035,0.7087749,50.0
16.091713,-4.4932694,0.55098796,50.0
15.293354,-6.090926,0.43182504,50.0
15.563739,-5.567108,0.27624676,50.0
15.700472,-4.978798,0.10467611,50.0
14.159046,-3.9500132,0.032258913,50.0
11.672946,-4.626956,0.021591501,50.0
10.460692,-3.7095199,-0.013833372,50.0
9.543138,-3.0001535,-0.047321796,50.0
8.604794,-2.3664422,-0.06181559,50.0
7.735107,-3.0273242,-0.077182785,50.0
7.207506,-2.523983,-0.09137802,50.0
6.7595773,-2.099821,-0.10634622,50.0
6.295026,-1.7090771,-0.11053984,50.0
5.625687,-2.1711993,-0.10124546,50.0
5.413332,-1.8715057,-0.1178035,50.0
5.134694,-1.5715275,-0.12037189,50.0
4.8812504,-1.3073196,-0.12376216,50.0
4.54602,-1.7334471,-0.13278577,50.0
4.281418,-1.4579709,-0.12028433,50.0
4.2131433,-1.2729514,-0.14020047,50.0
4.0687847,-1.0748317,-0.1455336,50.0
3.7590466,-1.414387,-0.14179127,50.0
3.6844263,-1.2407949,-0.1517629,50.0
3.5417333,-1.0542865,-0.14616887,50.0
3.46245,-0.9010823,-0.15502696,50.0
3.189295,-1.1834102,-0.14323711,50.0
3.1669116,-1.0525599,-0.15850937,50.0
3.1002758,-0.9121821,-0.16212907,50.0
3.0469062,-0.78200793,-0.17155212,50.0
2.8169968,-1.0341312,-0.15906934,50.0
2.7408721,-0.89689946,-0.15332323,50.0
2.6690392,-0.77126086,-0.14931928,50.0
2.615546,-0.65755224,-0.15251832,50.0
0.30273443,0.0039471984,0.5847592,50.0
0.30273443,0.0039471984,0.5847592,50.0
0.30273443,0.0039471984,0.5847592,50.0
0.30273443,0.0039471984,0.5847592,50.0
0.30273443,0.0039471984,0.5847592,50.0
0.30273443,0.0039471984,0.5847592,50.0
0.30273443,0.0039471984,0.5847592,50.0
0.30273443,0.0039471984,0.5847592,50.0
0.30273443,0.0039471984,0.5847592,50.0
0.30273443,0.0039471984,0.5847592,50.0
0.30273443,0.0039471984,0.5847592,50.0
0.30273443,0.0039471984,0.5847592,50.0
0.30273443,0.0039471984,0.5847592,50.0
0.30273443,0.0039471984,0.5847592,50.0
0.30273443,0.0039471984,0.5847592,50.0
15.968119,-4.6270437,2.9437435,50.0
15.184434,-6.2293725,2.7942958,50.0
15.43482,-5.700173,2.635538,50.0
15.687656,-5.165113,2.4856427,50.0
15.971834,-4.640873,2.3397617,50.0
15.179608,-6.2343163,2.1946344,50.0
15.478198,-5.7236185,2.0456288,50.0
15.702579,-5.178836,1.8909949,50.0
15.974783,-4.6488233,1.741488,50.0
15.195576,-6.249793,1.6086373,50.0
15.504065,-5.7438145,1.4556652,50.0
15.708209,-5.1921277,1.302634,50.0
15.993874,-4.6660433,1.1474028,50.0
15.205479,-6.2587724,1.018234,50.0
15.462162,-5.7356567,0.86360115,50.0
15.721308,-5.2013745,0.7089566,50.0
15.998922,-4.675828,0.5514244,50.0
15.212827,-6.2724924,0.43231842,50.0
15.484877,-5.7504363,0.27685407,50.0
15.682687,-5.1824136,0.10366821,50.0
13.776286,-4.0202646,0.04590039,50.0
11.848144,-4.864366,0.010344135,50.0
10.479706,-3.8587294,-0.017421557,50.0
9.537716,-3.1242409,-0.049296528,50.0
8.598969,-2.4753175,-0.063492924,50.0
7.68909,-3.1148505,-0.076221555,50.0
7.1545596,-2.6004255,-0.089083135,50.0
6.7455254,-2.1830943,-0.10750001,50.0
6.2059565,-1.762296,-0.10253263,50.0
5.6507244,-2.258447,-0.10783705,50.0
5.401058,-1.9383564,-0.11919869,50.0
5.1365724,-1.638072,-0.12341078,50.0
4.864818,-1.3634467,-0.12365764,50.0
4.492547,-1.7719347,-0.12724836,50.0
4.3166394,-1.5271165,-0.12968993,50.0
4.185995,-1.3170772,-0.1380197,50.0
3.9968846,-1.1035051,-0.13408682,50.0
3.6962113,-1.4375465,-0.1321442,50.0
3.601175,-1.2563641,-0.13685305,50.0
3.5257304,-1.093051,-0.14545825,50.0
3.495967,-0.9532776,-0.16549394,50.0
3.193328,-1.2267966,-0.14791983,50.0
3.09657,-1.065783,-0.14352873,50.0
3.069562,-0.9399142,-0.15689455,50.0
2.9740946,-0.7967937,-0.15407503,50.0
2.7845588,-1.0566106,-0.15319127,50.0
2.744009,-0.932305,-0.15762608,50.0
2.7065573,-0.8163922,-0.16396262,50.0
2.620998,-0.6900394,-0.15686078,50.0
0.30273443,0.0039471984,0.5847592,50.0
0.30273443,0.0039471984,0.5847592,50.0
0.30273443,0.0039471984,0.5847592,50.0
0.30273443,0.0039471984,0.5847592,50.0
0.30273443,0.0039471984,0.5847592,50.0
0.30273443,0.0039471984,0.5847592,50.0
0.30273443,0.0039471984,0.5847592,50.0
0.30273443,0.0039471984,0.5847592,50.0
0.30273443,0.0039471984,0.5847592,50.0
0.30273443,0.0039471984,0.5847592,50.0
0.30273443,0.0039471984,0.5847592,50.0
0.30273443,0.0039471984,0.5847592,50.0
0.30273443,0.0039471984,0.5847592,50.0
0.30273443,0.0039471984,0.5847592,50.0
0.30273443,0.0039471984,0.5847592,50.0
15.867542,-4.805646,2.937677,50.0
15.114992,-6.4149404,2.795971,50.0
15.352584,-5.880981,2.6344526,50.0
15.603368,-5.346523,2.483595,50.0
15.879456,-4.822111,2.3362842,50.0
15.106491,-6.418294,2.1955848,50.0
15.381722,-5.8995223,2.0436323,50.0
15.637812,-5.367348,1.891391,50.0
15.885061,-4.8309693,1.7395253,50.0
15.097569,-6.4232707,1.6076998,50.0
15.395198,-5.915289,1.4539514,50.0
15.63574,-5.3780947,1.3026778,50.0
15.901026,-4.8475266,1.1465337,50.0
15.117417,-6.436769,1.0183942,50.0
15.381278,-5.917581,0.86385566,50.0
15.640231,-5.3845477,0.709224,50.0
15.886848,-4.851434,0.55190605,50.0
15.130099,-6.453,0.43282163,50.0
15.37311,-5.9205976,0.27809605,50.0
15.596195,-5.363172,0.1047453,50.0
14.195208,-4.3318033,0.02738844,50.0
11.830572,-5.0244827,0.008546801,50.0
10.507727,-4.0133495,-0.021661652,50.0
9.455344,-3.2221093,-0.0460739,50.0
8.59077,-2.5841088,-0.06508881,50.0
7.7242427,-3.237606,-0.082647696,50.0
7.1220884,-2.6843498,-0.08888963,50.0
6.7172685,-2.2617002,-0.10723199,50.0
6.2056584,-1.8414636,-0.1049426,50.0
5.5925426,-2.3108072,-0.1037654,50.0
5.3565507,-1.9927964,-0.11623971,50.0
5.1384764,-1.705229,-0.1265826,50.0
4.913773,-1.4400597,-0.13384733,50.0
4.4803963,-1.8276207,-0.12881956,50.0
4.269117,-1.5650501,-0.12449145,50.0
4.160212,-1.3613863,-0.13618387,50.0
4.049627,-1.1696584,-0.147008,50.0
3.6881564,-1.4834657,-0.13413884,50.0
3.605504,-1.3047276,-0.14116392,50.0
3.5544279,-1.1475756,-0.15502028,50.0
3.4392958,-0.9784378,-0.1548805,50.0
3.1985106,-1.2712452,-0.15305364,50.0
3.1410322,-1.1229761,-0.1585859,50.0
3.0659964,-0.9767568,-0.15903558,50.0
3.0055826,-0.8425585,-0.16553527,50.0
2.8119466,-1.1049647,-0.16524526,50.0
2.7332342,-0.9625907,-0.15782976,50.0
2.6908903,-0.84394646,-0.16220376,50.0
2.6077485,-0.71705127,-0.15534118,50.0
0.30273443,0.0039471984,0.5847592,50.0
0.30273443,0.0039471984,0.5847592,50.0
0.30273443,0.0039471984,0.5847592,50.0
0.30273443,0.0039471984,0.5847592,50.0
0.30273443,0.0039471984,0.5847592,50.0
0.30273443,0.0039471984,0.5847592,50.0
0.30273443,0.0039471984,0.5847592,50.0
0.30273443,0.0039471984,0.5847592,50.0
0.30273443,0.0039471984,0.5847592,50.0
0.30273443,0.0039471984,0.5847592,50.0
0.30273443,0.0039471984,0.5847592,50.0
0.30273443,0.0039471984,0.5847592,50.0
0.30273443,0.0039471984,0.5847592,50.0
0.30273443,0.0039471984,0.5847592,50.0
0.30273443,0.0039471984,0.5847592,50.0
15.780964,-4.9876447,2.9340496,50.0
14.998024,-6.5794897,2.7908697,50.0
15.259914,-6.0572777,2.6322443,50.0
15.52908,-5.5310564,2.483069,50.0
15.776478,-4.99903,2.331854,50.0
15.012032,-6.5928655,2.194459,50.0
15.292446,-6.077669,2.0425425,50.0
15.559497,-5.550959,1.8908355,50.0
15.798929,-5.013459,1.7379957,50.0
15.017578,-6.6042814,1.6081641,50.0
15.285342,-6.0853357,1.4522991,50.0
15.547889,-5.5582714,1.3021135,50.0
15.807993,-5.0280514,1.1457427,50.0
15.016291,-6.608631,1.0182414,50.0
15.300993,-6.099515,0.8641717,50.0
15.544772,-5.5620565,0.70940125,50.0
15.810877,-5.0373626,0.5523163,50.0
15.044277,-6.632012,0.43334395,50.0
15.303905,-6.1069913,0.27843842,50.0
15.485049,-5.5343676,0.1065416,50.0
14.20937,-4.524266,0.024972396,50.0
11.876369,-5.214462,0.0034668017,50.0
10.427155,-4.1258664,-0.019544436,50.0
9.054324,-3.2020645,-0.02086584,50.0
8.569769,-2.689364,-0.06578256,50.0
7.6539345,-3.31494,-0.079704404,50.0
7.1199327,-2.7806726,-0.09180212,50.0
6.667506,-2.3323996,-0.10473384,50.0
6.206193,-1.9215064,-0.10756912,50.0
5.5836477,-2.3845892,-0.10620273,50.0
5.34085,-2.0584617,-0.11737178,50.0
5.117142,-1.7644827,-0.12645347,50.0
4.8646827,-1.4864395,-0.12888122,50.0
4.4567094,-1.878382,-0.12853299,50.0
4.3244157,-1.6443219,-0.13782388,50.0
4.1311555,-1.4042423,-0.1338254,50.0
4.0349474,-1.2155921,-0.14691666,50.0
3.6821659,-1.530621,-0.13670303,50.0
3.5910125,-1.3459446,-0.14146791,50.0
3.4868348,-1.1678483,-0.14277285,50.0
3.3954782,-1.0065942,-0.14734036,50.0
3.1844215,-1.307534,-0.15341589,50.0
3.1449654,-1.1651564,-0.1632326,50.0
3.0237467,-0.9995667,-0.15084824,50.0
2.9949956,-0.8757061,-0.16546938,50.0
2.7928896,-1.1333117,-0.16358334,50.0
2.7372048,-0.9989824,-0.16267417,50.0
2.690209,-0.876884,-0.16524948,50.0
2.603276,-0.7468085,-0.15674989,50.0
0.30298322,0.004105687,0.58462936,50.0
0.30298322,0.004105687,0.58462936,50.0
0.30298322,0.004105687,0.58462936,50.0
0.30298322,0.004105687,0.58462936,50.0
0.30298322,0.004105687,0.58462936,50.0
0.30298322,0.004105687,0.58462936,50.0
0.30298322,0.004105687,0.58462936,50.0
0.30298322,0.004105687,0.58462936,50.0
0.30298322,0.004105687,0.58462936,50.0
0.30298322,0.004105687,0.58462936,50.0
0.30298322,0.004105687,0.58462936,50.0
0.30298322,0.004105687,0.58462936,50.0
0.30298322,0.004105687,0.58462936,50.0
0.30298322,0.004105687,0.58462936,50.0
0.30298322,0.004105687,0.58462936,50.0
15.691868,-5.154646,2.9221554,50.0
14.921619,-6.7476506,2.7839172,50.0
15.171113,-6.2208443,2.6227152,50.0
15.428285,-5.6917872,2.4714556,50.0
15.704763,-5.171881,2.323212,50.0
14.930698,-6.759055,2.1870418,50.0
15.18012,-6.231901,2.0315232,50.0
15.473016,-5.717557,1.8819318,50.0
15.698389,-5.17696,1.7277803,50.0
14.948527,-6.776353,1.6018405,50.0
15.185469,-6.2447853,1.4436913,50.0
15.46944,-5.72784,1.2944727,50.0
15.704123,-5.190601,1.1370511,50.0
14.948766,-6.7814946,1.0116794,50.0
15.19883,-6.258299,0.8566846,50.0
15.483787,-5.7382603,0.7024466,50.0
15.717996,-5.203712,0.5453403,50.0
14.945394,-6.790851,0.42673883,50.0
15.21155,-6.2700214,0.27196658,50.0
15.328759,-5.673802,0.10252526,50.0
14.291731,-4.7295165,0.013094889,50.0
11.686954,-5.287242,0.0046221036,50.0
10.485709,-4.2868147,-0.03070463,50.0
9.419904,-3.4552379,-0.053125426,50.0
8.559939,-2.79142,-0.07133447,50.0
7.635119,-3.4083161,-0.08499636,50.0
7.068149,-2.8505604,-0.093086526,50.0
6.6178513,-2.3967578,-0.10528824,50.0
6.2598486,-2.0149105,-0.11934827,50.0
5.5773797,-2.4550319,-0.11158799,50.0
5.286603,-2.1033165,-0.11554659,50.0
5.0955043,-1.8191783,-0.1286111,50.0
4.879028,-1.5494125,-0.13606611,50.0
4.457108,-1.9362781,-0.13442783,50.0
4.28515,-1.6817987,-0.13615671,50.0
4.1579003,-1.4644496,-0.1438509,50.0
4.0206113,-1.2582278,-0.14871547,50.0
3.7175734,-1.5941455,-0.14984518,50.0
3.576111,-1.3838484,-0.14328665,50.0
3.4849627,-1.2087097,-0.14706609,50.0
3.4149947,-1.0525525,-0.15633097,50.0
3.1778972,-1.344516,-0.15713301,50.0
3.0740342,-1.1732435,-0.14948815,50.0
3.0581365,-1.0482228,-0.1647619,50.0
2.9535117,-0.89583623,-0.15808344,50.0
2.7979007,-1.1702924,-0.17039353,50.0
2.7272098,-1.0274585,-0.1644531,50.0
2.711207,-0.91605556,-0.17636225,50.0
2.6197724,-0.78160536,-0.166123,50.0
0.30298322,0.004105687,0.58462936,50.0
0.30298322,0.004105687,0.58462936,50.0
0.30298322,0.004105687,0.58462936,50.0
0.30298322,0.004105687,0.58462936,50.0
0.30298322,0.004105687,0.58462936,50.0
0.30298322,0.004105687,0.58462936,50.0
0.30298322,0.004105687,0.58462936,50.0
0.30298322,0.004105687,0.58462936,50.0
0.30298322,0.004105687,0.58462936,50.0
0.30298322,0.004105687,0.58462936,50.0
0.30298322,0.004105687,0.58462936,50.0
0.30298322,0.004105687,0.58462936,50.0
0.30298322,0.004105687,0.58462936,50.0
0.30298322,0.004105687,0.58462936,50.0
0.30298322,0.004105687,0.58462936,50.0
15.615244,-5.3387127,2.920701,50.0
14.826923,-6.921277,2.7827888,50.0
15.10088,-6.4058533,2.6241827,50.0
15.354466,-5.875764,2.4715393,50.0
15.626002,-5.3554583,2.3220158,50.0
14.830432,-6.930231,2.1857567,50.0
15.086022,-6.4067707,2.030379,50.0
15.41558,-5.908648,1.8835623,50.0
15.670362,-5.378281,1.7309196,50.0
14.856112,-6.9516263,1.6017717,50.0
15.103083,-6.4249,1.4438907,50.0
15.394237,-5.912017,1.2947316,50.0
15.637329,-5.378506,1.1373844,50.0
14.870706,-6.9637,1.0123628,50.0
15.136446,-6.4473825,0.8574376,50.0
15.366563,-5.9062123,0.7025244,50.0
15.62274,-5.381872,0.54581904,50.0
14.860909,-6.9700313,0.42723748,50.0
15.105935,-6.440544,0.27301258,50.0
15.26912,-5.8621693,0.10259567,50.0
14.244846,-4.905171,0.012958037,50.0
10.044168,-4.6699033,0.08577047,50.0
10.380118,-4.3887434,-0.027217625,50.0
9.376768,-3.5668945,-0.052863583,50.0
8.503384,-2.8849537,-0.06939337,50.0
7.6142535,-3.5084343,-0.08672571,50.0
7.0636406,-2.9469507,-0.09599793,50.0
6.576811,-2.4697337,-0.10388778,50.0
6.2252545,-2.0845962,-0.11808032,50.0
5.5790167,-2.5351157,-0.11568292,50.0
5.301257,-2.1822436,-0.12116345,50.0
5.0525026,-1.8698995,-0.12544279,50.0
4.8484306,-1.6015418,-0.13417648,50.0
4.443665,-1.9923027,-0.13614441,50.0
4.2506113,-1.7246487,-0.13356556,50.0
4.040677,-1.4726102,-0.12496112,50.0
3.960355,-1.2880812,-0.13980585,50.0
3.6650054,-1.6201746,-0.14265405,50.0
3.5687041,-1.4282844,-0.14538956,50.0
3.4798443,-1.2516656,-0.1492849,50.0
3.4450276,-1.1059816,-0.16658522,50.0
3.1514935,-1.3750725,-0.15453243,50.0
3.0771694,-1.2150235,-0.15413785,50.0
3.0071723,-1.0670097,-0.15434022,50.0
2.9313354,-0.9244771,-0.15493673,50.0
2.7833045,-1.2008674,-0.17030752,50.0
2.715252,-1.0575643,-0.1646499,50.0
2.676554,-0.93640065,-0.16893257,50.0
2.6288912,-0.81670487,-0.17222276,50.0
0.30298322,0.004105687,0.58462936,50.0
0.30298322,0.004105687,0.58462936,50.0
0.30298322,0.004105687,0.58462936,50.0
0.30298322,0.004105687,0.58462936,50.0
0.30298322,0.004105687,0.58462936,50.0
0.30298322,0.004105687,0.58462936,50.0
0.30298322,0.004105687,0.58462936,50.0
0.30298322,0.004105687,0.58462936,50.0
0.30298322,0.004105687,0.58462936,50.0
0.30298322,0.004105687,0.58462936,50.0
0.30298322,0.004105687,0.58462936,50.0
0.30298322,0.004105687,0.58462936,50.0
0.30298322,0.004105687,0.58462936,50.0
0.30298322,0.004105687,0.58462936,50.0
0.30298322,0.004105687,0.58462936,50.0
15.515023,-5.513916,2.9159777,50.0
14.748838,-7.1027813,2.7845137,50.0
15.008422,-6.5811563,2.622901,50.0
15.259995,-6.051331,2.4693139,50.0
15.519825,-5.52871,2.317957,50.0
14.747808,-7.109639,2.1866596,50.0
15.017138,-6.592494,2.0319269,50.0
15.29292,-6.0737224,1.8797774,50.0
15.589091,-5.5612636,1.730279,50.0
14.758915,-7.1243277,1.6015245,50.0
15.033092,-6.6104784,1.4449524,50.0
15.278848,-6.079797,1.2932065,50.0
15.564487,-5.564183,1.1375933,50.0
14.770656,-7.1352797,1.0124743,50.0
15.027891,-6.6161966,0.85739183,50.0
15.308649,-6.097014,0.7030937,50.0
15.548919,-5.567062,0.5462487,50.0
14.763473,-7.142845,0.42786363,50.0
15.042148,-6.629116,0.27314308,50.0
15.184895,-6.040899,0.10339665,50.0
14.183555,-5.075924,0.01333444,50.0
10.392526,-4.9903145,0.06518669,50.0
10.270838,-4.4875,-0.023559807,50.0
9.245411,-3.6425943,-0.046465248,50.0
8.345586,-2.9408343,-0.0594237,50.0
7.5920324,-3.6085534,-0.08844811,50.0
7.016937,-3.0252283,-0.094769105,50.0
6.568086,-2.5556097,-0.10613865,50.0
6.177718,-2.149291,-0.11536307,50.0
5.53768,-2.5948563,-0.11419153,50.0
5.284898,-2.2483618,-0.12254088,50.0
5.029151,-1.928086,-0.12530184,50.0
4.807033,-1.6494057,-0.13066202,50.0
4.4179735,-2.0425696,-0.13584381,50.0
4.264149,-1.7888701,-0.13984747,50.0
4.0970097,-1.5490026,-0.13910574,50.0
3.9774454,-1.3451083,-0.14631505,50.0
3.6869912,-1.68237,-0.15171109,50.0
3.5080545,-1.4488814,-0.13565834,50.0
3.4325316,-1.2776322,-0.14183967,50.0
3.3789742,-1.1253366,-0.15396668,50.0
3.1421983,-1.4138865,-0.15647843,50.0
3.054042,-1.2454054,-0.15191619,50.0
3.0018976,-1.1034718,-0.15647565,50.0
2.9306335,-0.9607053,-0.15794253,50.0
2.7528121,-1.2234833,-0.16546717,50.0
2.7037964,-1.08793,-0.16511825,50.0
2.6479793,-0.9585835,-0.16348386,50.0
2.6356997,-0.85148764,-0.1777331,50.0
0.30298322,0.004105687,0.58462936,50.0
0.30298322,0.004105687,0.58462936,50.0
0.30298322,0.004105687,0.58462936,50.0
0.30298322,0.004105687,0.58462936,50.0
0.30298322,0.004105687,0.58462936,50.0
0.30298322,0.004105687,0.58462936,50.0
0.30298322,0.004105687,0.58462936,50.0
0.30298322,0.004105687,0.58462936,50.0
0.30298322,0.004105687,0.58462936,50.0
0.30298322,0.004105687,0.58462936,50.0
0.30298322,0.004105687,0.58462936,50.0
0.30298322,0.004105687,0.58462936,50.0
0.30298322,0.004105687,0.58462936,50.0
0.30298322,0.004105687,0.58462936,50.0
0.30298322,0.004105687,0.58462936,50.0
15.42485,-5.6920004,2.9131184,50.0
14.662299,-7.2802753,2.7853017,50.0
14.926497,-6.760988,2.6233866,50.0
15.180889,-6.2327633,2.4693031,50.0
15.445195,-5.712808,2.3177397,50.0
14.681601,-7.2975235,2.1896534,50.0
14.921518,-6.7661896,2.031072,50.0
15.185953,-6.244011,1.8775179,50.0
15.472054,-5.7303634,1.727119,50.0
14.679242,-7.305644,1.6026733,50.0
14.934505,-6.7831216,1.4444817,50.0
15.182799,-6.254546,1.2926977,50.0
15.448276,-5.733307,1.1363153,50.0
14.672153,-7.307266,1.0127019,50.0
14.961864,-6.8039556,0.85818446,50.0
15.20039,-6.2671065,0.7032933,50.0
15.462575,-5.747349,0.5467152,50.0
14.684483,-7.3247614,0.42827705,50.0
14.923375,-6.7926474,0.27440152,50.0
15.109596,-6.2230954,0.10384917,50.0
14.18556,-5.270756,0.011019619,50.0
10.337599,-5.1174173,0.0651815,50.0
10.09639,-4.554324,-0.015956713,50.0
9.220215,-3.760635,-0.04762639,50.0
8.417902,-3.0808043,-0.06796974,50.0
7.5569158,-3.7027588,-0.089092016,50.0
7.009947,-3.1217356,-0.09766771,50.0
6.5682745,-2.6459057,-0.10950007,50.0
6.1824346,-2.2332816,-0.11897835,50.0
5.5151186,-2.6639187,-0.1153082,50.0
5.2371163,-2.3001394,-0.11955364,50.0
5.0379243,-1.9998796,-0.13011414,50.0
4.795648,-1.7081192,-0.13201042,50.0
4.340684,-2.0663614,-0.12655938,50.0
4.241852,-1.8373902,-0.13971542,50.0
4.079481,-1.5962577,-0.13933726,50.0
3.9247916,-1.376488,-0.13905445,50.0
3.624137,-1.7022841,-0.14241447,50.0
3.508618,-1.4968722,-0.13976178,50.0
3.4147701,-1.3152223,-0.14132386,50.0
3.3958786,-1.174859,-0.16135594,50.0
3.0769684,-1.42415,-0.14386997,50.0
3.056976,-1.287782,-0.15679705,50.0
2.98989,-1.1373124,-0.15688524,50.0
2.927631,-0.996367,-0.16043296,50.0
2.7452793,-1.2574854,-0.16775398,50.0
2.6980534,-1.1210372,-0.16749848,50.0
2.627165,-0.98358333,-0.16058162,50.0
2.6214542,-0.87873614,-0.17649473,50.0
0.30298322,0.004105687,0.58462936,50.0
0.30298322,0.004105687,0.58462936,50.0
0.30298322,0.004105687,0.58462936,50.0
0.30298322,0.004105687,0.58462936,50.0
0.30298322,0.004105687,0.58462936,50.0
0.30298322,0.004105687,0.58462936,50.0
0.30298322,0.004105687,0.58462936,50.0
0.30298322,0.004105687,0.58462936,50.0
0.30298322,0.004105687,0.58462936,50.0
0.30298322,0.004105687,0.58462936,50.0
0.30298322,0.004105687,0.58462936,50.0
0.30298322,0.004105687,0.58462936,50.0
0.30298322,0.004105687,0.58462936,50.0
0.30298322,0.004105687,0.58462936,50.0
0.30298322,0.004105687,0.58462936,50.0
15.31324,-5.8611403,2.9072735,50.0
14.563916,-7.451664,2.784611,50.0
14.82357,-6.930822,2.6212466,50.0
15.08409,-6.406449,2.4673305,50.0
15.364636,-5.894458,2.317108,50.0
14.573277,-7.4640903,2.1882012,50.0
14.840926,-6.946697,2.0319266,50.0
15.120955,-6.431652,1.8791014,50.0
15.400537,-5.916005,1.7275534,50.0
14.581383,-7.4777403,1.6026989,50.0
14.856415,-6.9651237,1.4453527,50.0
15.084721,-6.4278574,1.2921989,50.0
15.362773,-5.9132113,1.1362387,50.0
14.578692,-7.4816246,1.0131521,50.0
14.85287,-6.9716406,0.85822624,50.0
15.122313,-6.449439,0.70376027,50.0
15.376897,-5.927454,0.5471852,50.0
14.589037,-7.498376,0.42885634,50.0
14.844279,-6.974163,0.2747849,50.0
14.989906,-6.3860106,0.10568772,50.0
14.11142,-5.4374557,0.011765929,50.0
11.647021,-5.9623528,-0.0059252363,50.0
10.198111,-4.7503033,-0.025387032,50.0
9.3598995,-3.9512887,-0.06063728,50.0
8.368304,-3.1758056,-0.06683709,50.0
7.502948,-3.7873592,-0.088082016,50.0
6.9513454,-3.1943488,-0.09541915,50.0
6.5361977,-2.7230325,-0.10940441,50.0
6.1554627,-2.3056715,-0.11892022,50.0
5.492527,-2.7332807,-0.11653891,50.0
5.2388453,-2.375201,-0.12374391,50.0
5.054717,-2.0761507,-0.13629746,50.0
4.775221,-1.763531,-0.13202831,50.0
4.241601,-2.0770285,-0.1134055,50.0
4.2189603,-1.885632,-0.13958043,50.0
4.125403,-1.6713862,-0.15190512,50.0
3.8545582,-1.3999135,-0.12830645,50.0
3.61336,-1.7484677,-0.14458409,50.0
3.5455322,-1.5629997,-0.15228108,50.0
3.3983486,-1.3533549,-0.14122574,50.0
3.348521,-1.1998601,-0.15335277,50.0
3.0962267,-1.4777532,-0.1535422,50.0
3.0697758,-1.3354986,-0.16451585,50.0
2.9854448,-1.1745338,-0.15950814,50.0
2.9178557,-1.0296128,-0.16112638,50.0
2.7364283,-1.2910335,-0.16977443,50.0
2.6840692,-1.1503909,-0.16741607,50.0
2.632434,-1.0197959,-0.1661682,50.0
2.615784,-0.9092754,-0.17818762,50.0
0.30298322,0.004105687,0.58462936,50.0
0.30298322,0.004105687,0.58462936,50.0
0.30298322,0.004105687,0.58462936,50.0
0.30298322,0.004105687,0.58462936,50.0
0.30298322,0.004105687,0.58462936,50.0
0.30298322,0.004105687,0.58462936,50.0
0.30298322,0.004105687,0.58462936,50.0
0.30298322,0.004105687,0.58462936,50.0
0.30298322,0.004105687,0.58462936,50.0
0.30298322,0.004105687,0.58462936,50.0
0.30298322,0.004105687,0.58462936,50.0
0.30298322,0.004105687,0.58462936,50.0
0.30298322,0.004105687,0.58462936,50.0
0.30298322,0.004105687,0.58462936,50.0
0.30298322,0.004105687,0.58462936,50.0
15.257557,-6.051808,2.910426,50.0
14.739147,-7.109236,2.6220047,50.0
14.995241,-6.583167,2.4666448,50.0
15.269921,-6.0701313,2.315102,50.0
14.764356,-7.1293297,2.0334191,50.0
14.99721,-6.5933266,1.875743,50.0
15.290707,-6.086109,1.7252561,50.0
14.75905,-7.137828,1.4452224,50.0
15.021987,-6.616508,1.2935091,50.0
15.277917,-6.093013,1.1362748,50.0
14.77155,-7.1523046,0.8588378,50.0
15.031973,-6.626284,0.7041568,50.0
15.300196,-6.1108546,0.5476383,50.0
14.756656,-7.151655,0.27531382,50.0
14.942292,-6.580139,0.10511601,50.0
14.107439,-5.632595,0.009515913,50.0
10.121133,-4.862542,-0.02393083,50.0
9.115139,-3.9739013,-0.046343103,50.0
8.298216,-3.262135,-0.064126045,50.0
7.49618,-3.8973265,-0.0915968,50.0
6.932113,-3.2859173,-0.097295985,50.0
6.533085,-2.8132985,-0.11265194,50.0
6.1377196,-2.3818736,-0.12007971,50.0
5.4489503,-2.7915878,-0.11503653,50.0
5.199511,-2.430779,-0.12216024,50.0
5.018908,-2.1298578,-0.13462956,50.0
4.7623496,-1.8220713,-0.13336913,50.0
4.084736,-2.0539389,-0.08988422,50.0
4.2272687,-1.949415,-0.14535598,50.0
4.0265164,-1.6828563,-0.13666372,50.0
3.889825,-1.4650462,-0.13884288,50.0
3.5717854,-1.778197,-0.14006332,50.0
3.4944959,-1.586983,-0.14495109,50.0
3.3832417,-1.3920898,-0.14154519,50.0
3.3028266,-1.224617,-0.1457888,50.0
3.0684342,-1.506829,-0.15093501,50.0
3.0261862,-1.3559401,-0.15707915,50.0
2.944307,-1.1953864,-0.15203705,50.0
2.9228659,-1.0689976,-0.16617535,50.0
2.6890595,-1.3036921,-0.1599157,50.0
2.6568205,-1.1731167,-0.16323176,50.0
2.6380348,-1.0566823,-0.17203484,50.0
2.602635,-0.93691194,-0.17753243,50.0
0.30298322,0.004105687,0.58462936,50.0
0.30298322,0.004105687,0.58462936,50.0
0.30298322,0.004105687,0.58462936,50.0
0.30298322,0.004105687,0.58462936,50.0
0.30298322,0.004105687,0.58462936,50.0
0.30298322,0.004105687,0.58462936,50.0
0.30298322,0.004105687,0.58462936,50.0
0.30298322,0.004105687,0.58462936,50.0
0.30298322,0.004105687,0.58462936,50.0
0.30298322,0.004105687,0.58462936,50.0
0.30298322,0.004105687,0.58462936,50.0
0.30298322,0.004105687,0.58462936,50.0
0.30298322,0.004105687,0.58462936,50.0
0.30298322,0.004105687,0.58462936,50.0
0.30298322,0.004105687,0.58462936,50.0
15.162939,-6.226682,2.907883,50.0
14.659606,-7.2902174,2.6237783,50.0
14.911489,-6.7620115,2.4668982,50.0
15.180498,-6.2474523,2.3139584,50.0
14.659743,-7.2980347,2.032327,50.0
14.939555,-6.78439,1.8783877,50.0
15.201966,-6.2640834,1.7247269,50.0
14.680104,-7.3196173,1.4463286,50.0
14.928761,-6.791535,1.2934703,50.0
15.198282,-6.2747283,1.1365945,50.0
14.68264,-7.329297,0.8593584,50.0
14.941339,-6.802728,0.70457864,50.0
15.194547,-6.281988,0.548168,50.0
14.688239,-7.338958,0.275394,50.0
14.920222,-6.787114,0.10363263,50.0
13.862356,-5.727683,0.017254995,50.0
10.202041,-5.0549426,-0.03238827,50.0
9.204939,-4.146721,-0.056074247,50.0
8.308967,-3.3817945,-0.06807488,50.0
6.89213,-3.3675146,-0.09714849,50.0
6.478215,-2.8803196,-0.11021314,50.0
6.1080036,-2.4533386,-0.11990128,50.0
5.4341908,-2.8657174,-0.11756323,50.0
5.159558,-2.4857502,-0.12057358,50.0
4.9816017,-2.1825812,-0.13282119,50.0
4.7204833,-1.8685946,-0.13013838,50.0
4.3151865,-2.2436457,-0.13569471,50.0
4.084529,-1.9366665,-0.12304278,50.0
4.026053,-1.7380674,-0.14053537,50.0
3.8851044,-1.5147524,-0.14148487,50.0
3.5582306,-1.823026,-0.14184552,50.0
3.515688,-1.6471221,-0.15425438,50.0
3.3862455,-1.4393642,-0.14627028,50.0
3.3279421,-1.2785201,-0.15558702,50.0
3.0598736,-1.546426,-0.15355377,50.0
3.0162053,-1.3928599,-0.15887403,50.0
2.9759002,-1.2495692,-0.16499208,50.0
2.9014943,-1.0977178,-0.16378838,50.0
2.703077,-1.3499835,-0.16932207,50.0
2.6558797,-1.2090127,-0.16751918,50.0
2.6196346,-1.08286,-0.17025912,50.0
2.56979,-0.9561591,-0.17042467,50.0
0.30298322,0.004105687,0.58462936,50.0
0.30298322,0.004105687,0.58462936,50.0
0.30298322,0.004105687,0.58462936,50.0
0.30298322,0.004105687,0.58462936,50.0
0.30298322,0.004105687,0.58462936,50.0
0.30298322,0.004105687,0.58462936,50.0
0.30298322,0.004105687,0.58462936,50.0
0.30298322,0.004105687,0.58462936,50.0
0.30298322,0.004105687,0.58462936,50.0
0.30298322,0.004105687,0.58462936,50.0
0.30298322,0.004105687,0.58462936,50.0
0.30298322,0.004105687,0.58462936,50.0
0.30298322,0.004105687,0.58462936,50.0
0.30298322,0.004105687,0.58462936,50.0
0.30298322,0.004105687,0.58462936,50.0
15.08535,-6.4084177,2.9083471,50.0
14.559339,-7.4606524,2.622925,50.0
14.826458,-6.9402223,2.4672785,50.0
15.084416,-6.421512,2.3122923,50.0
14.570813,-7.474495,2.0330353,50.0
14.82907,-6.950924,1.8765669,50.0
15.095567,-6.4340305,1.7230117,50.0
14.590031,-7.495904,1.4469126,50.0
14.835257,-6.9661365,1.2935295,50.0
15.099038,-6.4478188,1.1362762,50.0
14.5836,-7.5010004,0.8597362,50.0
14.853101,-6.98011,0.7050482,50.0
15.107122,-6.4602556,0.548658,50.0
14.559883,-7.4954014,0.2767286,50.0
14.798835,-6.9482837,0.10535261,50.0
13.394563,-5.7203336,0.03434503,50.0
10.167486,-5.1909633,-0.033794135,50.0
9.134454,-4.2465997,-0.05440356,50.0
8.159013,-3.432664,-0.058990896,50.0
6.9110403,-3.4802089,-0.10323092,50.0
6.4217463,-2.9459882,-0.10766967,50.0
6.078323,-2.5248325,-0.11982955,50.0
5.1488104,-2.5558589,-0.12334,50.0
4.923195,-2.2248118,-0.12784591,50.0
4.750617,-1.9461422,-0.13869072,50.0
4.316406,-2.3095334,-0.1407938,50.0
